# .PCD v0.7 - Point Cloud Data file format
VERSION 0.7
FIELDS x y z rgb
SIZE 4 4 4 4
TYPE F F F F
COUNT 1 1 1 1
WIDTH 1386
HEIGHT 1
VIEWPOINT 0 0 0 1 0 0 0
POINTS 1386
DATA ascii
0.5934481 -3.5425057 -2.018137 7
1.9816676 -11.829289 -1.6856648 3
0.62582713 -3.7357881 -2.0140333 5
2.0387979 -12.170321 -1.4430563 0
0.66143405 -3.9483383 -2.0108533 7
0.7036683 -4.2004499 -2.0159409 5
0.74350989 -4.4382787 -2.0035849 4
8.0846729 -48.260334 -2.2819359 44
0.79886395 -4.7687073 -2.0196164 5
8.4678783 -50.547821 -1.1899247 30
0.85446626 -5.1006174 -2.019479 5
0.91538858 -5.4642849 -2.0165508 4
0.98642468 -5.8883247 -2.0173774 6
1.0649233 -6.3569112 -2.0112505 5
1.1600176 -6.9245639 -2.0132554 3
1.2735554 -7.6023116 -2.0179076 6
1.4109045 -8.4221983 -2.0233881 4
1.5743988 -9.3981543 -2.025476 3
1.7817734 -10.636048 -2.0318594 2
0.55145979 -3.3419576 -2.008745 4
1.9532504 -11.837091 -1.9710615 2
0.5842222 -3.5405045 -2.0161774 6
1.9608175 -11.88295 -1.6926234 2
0.61583418 -3.7320793 -2.0112164 5
1.974124 -11.96359 -1.4179678 0
0.65207511 -3.9517066 -2.0117512 7
0.69428515 -4.2075081 -2.0185077 4
0.73266244 -4.4400821 -2.0035849 4
7.9582644 -48.228687 -2.2795136 44
0.78720891 -4.7706451 -2.0196164 4
8.3462896 -50.580196 -1.1902033 30
0.84351665 -5.1118813 -2.0231166 5
0.90356338 -5.4757767 -2.0199709 4
0.97110778 -5.8851089 -2.0154567 6
1.0503192 -6.3651462 -2.0130377 5
1.1440326 -6.9330688 -2.0149093 3
1.2549748 -7.605401 -2.0179076 6
1.390954 -8.4294615 -2.0243106 4
1.5507921 -9.3981133 -2.0246444 3
1.7541784 -10.630675 -2.0300078 2
0.54095829 -3.3436735 -2.008745 4
1.9144783 -11.833427 -1.9694402 2
0.57309681 -3.5423222 -2.0161774 6
2.3017833 -14.227367 -2.0255256 3
0.60495287 -3.7392251 -2.0140333 5
1.9159089 -11.84227 -1.4028683 1
0.64022833 -3.9572637 -2.0135465 7
0.68077505 -4.2078834 -2.017652 4
4.6760402 -28.902693 -2.0473526 2
0.71958566 -4.447773 -2.0060251 3
7.781189 -48.095676 -2.2720602 43
0.7719233 -4.7712727 -2.0188456 4
8.181922 -50.572613 -1.1894141 30
0.82656085 -5.1089883 -2.0209341 5
8.1001196 -50.066994 0 45
0.88545626 -5.473022 -2.0179188 4
8.140728 -50.317993 1.1834257 28
0.95231223 -5.88626 -2.0148163 6
8.1730089 -50.517521 2.3864691 31
1.0294031 -6.3627596 -2.0112505 5
1.1216326 -6.9328322 -2.0138066 3
1.2313852 -7.6112156 -2.018414 5
1.3638442 -8.4299469 -2.0233881 4
1.5206351 -9.3990746 -2.0238125 3
1.7207733 -10.636133 -2.0300078 2
0.53080869 -3.3400745 -2.0056844 4
1.8792567 -11.825085 -1.9671705 2
0.56292868 -3.542187 -2.015198 6
1.8933769 -11.913934 -1.6954068 2
0.59506267 -3.7443879 -2.0159111 5
1.8794012 -11.825994 -1.4003129 2
0.62889433 -3.9572711 -2.0126488 7
0.66817033 -4.2044125 -2.015085 4
4.597187 -28.92746 -2.0481896 2
0.70630175 -4.4443517 -2.0035849 3
7.6236434 -47.971214 -2.265166 42
0.75859606 -4.7734098 -2.0188456 4
0.81229031 -5.1112766 -2.0209341 5
0.87075889 -5.4791861 -2.0192869 4
0.93676275 -5.8945103 -2.016737 6
1.0107315 -6.3599529 -2.0094631 4
1.1025693 -6.9378362 -2.014358 3
1.2107327 -7.6184459 -2.0194271 6
1.339992 -8.4318008 -2.022927 4
1.4943814 -9.403285 -2.0238125 3
1.6916811 -10.644778 -2.0307484 2
0.52307099 -3.3517418 -2.0118055 4
1.8456193 -11.826385 -1.966522 2
0.55249721 -3.5402994 -2.0132384 7
1.8491063 -11.848729 -1.6853864 3
0.5846042 -3.7460351 -2.0159111 4
1.844226 -11.817457 -1.3986868 2
0.6181168 -3.9607778 -2.0135465 7
0.65586948 -4.2026896 -2.0133739 4
4.5166974 -28.942156 -2.0483291 2
0.69388825 -4.4463067 -2.0035849 4
7.4797974 -47.92915 -2.2621846 42
0.74554801 -4.7773328 -2.0196164 4
7.82165 -50.119682 -1.1777158 30
0.79772669 -5.1116843 -2.0202067 5
0.85429579 -5.4741688 -2.0165508 4
0.92000657 -5.8952312 -2.0160968 6
0.99414492 -6.370296 -2.0118461 5
1.0825983 -6.937089 -2.0132554 3
1.1891553 -7.6198859 -2.0189207 6
1.3158411 -8.4316654 -2.0220048 4
1.4684188 -9.4093552 -2.0242283 3
1.6610401 -10.643636 -2.0296376 2
0.51175874 -3.3482668 -2.008745 4
1.8069652 -11.822371 -1.9649009 2
0.54110873 -3.5402942 -2.0122588 8
0.57229906 -3.7443619 -2.0140333 4
1.8067907 -11.821229 -1.3984545 2
0.60567045 -3.9626999 -2.0135465 7
0.64293605 -4.2065163 -2.0142293 3
4.4275579 -28.968037 -2.0491662 2
0.68074429 -4.4538832 -2.0060251 4
7.3159032 -47.865513 -2.2580853 42
0.72969925 -4.774179 -2.0173037 4
0.78166372 -5.1141653 -2.0202067 5
0.83879751 -5.4879723 -2.0206552 4
0.90148139 -5.8980923 -2.0160968 6
0.97412688 -6.3733873 -2.0118461 5
1.0605088 -6.9385557 -2.0127041 3
7.6547351 -50.082382 4.7267137 6
1.1643336 -7.617846 -2.017401 6
1.2896394 -8.4376802 -2.0224659 4
1.4376686 -9.4061861 -2.0225651 3
1.6255149 -10.635201 -2.0270452 2
0.5020771 -3.3514721 -2.0097654 4
1.7704184 -11.817922 -1.9632796 2
0.52982736 -3.536711 -2.0093198 8
1.7761058 -11.855886 -1.6848297 13
0.5609253 -3.7442968 -2.0130942 5
1.7705319 -11.81868 -1.3975253 2
0.59417534 -3.9662476 -2.0144441 7
0.63072032 -4.2101932 -2.015085 4
4.341886 -28.983021 -2.0493057 2
0.66671455 -4.4504623 -2.0035849 3
7.1572785 -47.776367 -2.2528679 41
0.71607786 -4.779973 -2.0188456 4
0.76703858 -5.1201468 -2.0216615 5
7.1594267 -47.790707 0 40
0.82139719 -5.4830022 -2.0179188 4
7.9635386 -53.158329 1.2479517 22
0.88341635 -5.8969936 -2.0148163 6
0.95408136 -6.3686976 -2.0094631 5
1.0399175 -6.9416718 -2.0127041 3
1.1414396 -7.6193538 -2.0168946 5
1.2640225 -8.4376202 -2.0215437 4
1.4097542 -9.4104109 -2.0225651 3
1.5948265 -10.645808 -2.0281563 2
0.49305093 -3.3510728 -2.008745 4
1.7394736 -11.822516 -1.9632796 2
0.52158183 -3.544986 -2.0132384 8
1.7424668 -11.84286 -1.6823245 14
0.55240631 -3.754488 -2.0177889 5
1.739585 -11.823274 -1.3975253 2
0.58274913 -3.9607162 -2.0108533 7
0.61969608 -4.2118297 -2.015085 3
4.2598958 -28.952833 -2.0463758 2
0.65665692 -4.4630384 -2.0084655 3
7.020545 -47.715878 -2.2491412 41
0.70329303 -4.7800055 -2.0180745 4
0.75336045 -5.1202941 -2.0209341 6
0.80676657 -5.4832745 -2.0172348 4
7.0428715 -47.867622 1.1233097 26
0.86852688 -5.9030347 -2.0160968 6
0.93851674 -6.3787284 -2.0118461 5
7.3868594 -50.20557 3.5485117 30
1.021461 -6.9424677 -2.0121527 3
1.1214886 -7.6223154 -2.0168946 6
1.2427787 -8.4466772 -2.022927 4
1.385398 -9.4160042 -2.0229809 3
1.5672369 -10.651892 -2.0285265 2
0.48252067 -3.3526053 -2.008745 4
1.7017606 -11.824016 -1.9626312 2
0.50969702 -3.5414295 -2.0102994 8
1.7063808 -11.856117 -1.6834379 11
0.5396021 -3.7492135 -2.0140333 5
1.702432 -11.828681 -1.3975253 2
0.57106692 -3.9678345 -2.0135465 7
0.60671848 -4.2155452 -2.0159409 3
4.1663575 -28.948301 -2.0451202 2
0.64133108 -4.456037 -2.0043983 4
6.8538132 -47.621033 -2.2436442 40
0.68827254 -4.7821918 -2.0180745 4
0.73700529 -5.1207919 -2.0202067 6
0.79007161 -5.4895024 -2.0186028 4
0.84889776 -5.8982329 -2.013536 5
7.2422967 -50.320255 2.3708172 32
0.91847253 -6.3816457 -2.0118461 5
1.0010147 -6.9551578 -2.0149093 3
1.0978122 -7.627717 -2.017401 6
1.2148501 -8.4409084 -2.0206218 4
1.3546947 -9.4125643 -2.0213175 3
1.5332049 -10.652872 -2.027786 2
0.47363693 -3.3573468 -2.0107853 4
1.6679071 -11.822859 -1.9616584 2
0.49810025 -3.5307536 -2.0034416 9
1.6752015 -11.874564 -1.6853864 3
0.52912998 -3.750706 -2.0140333 5
1.6688377 -11.829455 -1.3970608 2
0.56048352 -3.9729536 -2.0153418 7
0.59469128 -4.2154331 -2.015085 3
0.62837422 -4.4541926 -2.0027714 4
6.6942878 -47.452053 -2.2347937 39
0.67414171 -4.7786126 -2.0157621 4
0.72244185 -5.1209855 -2.019479 6
6.7387204 -47.767014 0 40
0.77473855 -5.4916878 -2.0186028 4
0.83321714 -5.9062095 -2.0154567 6
0.90038091 -6.3822956 -2.0112505 5
0.98078215 -6.9522147 -2.0132554 3
1.0759662 -7.6269212 -2.0163879 6
1.1912732 -8.4442682 -2.0206218 4
1.3286773 -9.4182482 -2.0217335 3
1.5039989 -10.661005 -2.0285265 2
0.46320313 -3.3553288 -2.008745 4
1.6309325 -11.814072 -1.9593887 2
0.48857614 -3.5391247 -2.0073602 9
1.6418583 -11.893216 -1.6873348 6
0.51799935 -3.7522593 -2.0140333 5
1.6345474 -11.840257 -1.3977575 1
0.54820448 -3.9710577 -2.0135465 7
0.58193433 -4.2153883 -2.0142293 3
3.9886456 -28.892761 -2.0395398 2
0.61640513 -4.4650865 -2.0068386 3
6.5523758 -47.463791 -2.234421 39
0.66097015 -4.7879043 -2.0188456 4
6.9651437 -50.453777 -1.1824973 30
0.70826387 -5.1304884 -2.0223892 6
6.5906763 -47.74123 0 40
0.75792736 -5.4902382 -2.0172348 4
0.8154307 -5.9067783 -2.0148163 6
0.88117969 -6.3830476 -2.0106547 6
0.95962483 -6.9512849 -2.0121527 3
1.0533324 -7.6300802 -2.0163879 6
1.166214 -8.4477654 -2.0206218 4
1.2993901 -9.4124603 -2.0196545 3
1.4710172 -10.655684 -2.026675 2
0.45439675 -3.3652122 -2.0138459 4
1.5966651 -11.824725 -1.9603615 2
0.4778401 -3.5388308 -2.0063808 8
1.6052388 -11.888221 -1.685943 7
0.50733668 -3.7572796 -2.0159111 5
1.6004735 -11.85293 -1.3986868 0
0.53689831 -3.9762094 -2.0153418 7
0.57063425 -4.2260542 -2.0185077 4
0.60168767 -4.4560323 -2.0019579 4
6.4026995 -47.417686 -2.2313464 39
0.64676154 -4.7898445 -2.0188456 4
0.69229066 -5.127028 -2.0202067 6
6.4484634 -47.756607 0 40
0.74113148 -5.4887381 -2.0158665 4
6.5261903 -48.332245 1.1323155 27
0.79815525 -5.9110494 -2.0154567 6
6.7628012 -50.084557 2.356842 32
0.86223727 -6.3856339 -2.0106547 5
0.93848169 -6.9502916 -2.0110502 3
1.0312072 -7.6370063 -2.017401 6
1.1408838 -8.4492598 -2.0201604 4
1.2717192 -9.4182119 -2.0200701 3
1.4399213 -10.663898 -2.0274155 2
0.4452228 -3.3681736 -2.0148661 4
1.5644132 -11.835008 -1.9613341 2
0.46864122 -3.5453374 -2.0093198 8
1.5748886 -11.914256 -1.6890049 1
0.49730504 -3.7621832 -2.0177889 5
1.5918366 -12.04247 -1.4205232 1
0.52555811 -3.9759216 -2.0144441 7
0.55811965 -4.2222543 -2.0159409 3
3.8117118 -28.836142 -2.0339592 2
0.59019917 -4.4649405 -2.0052118 3
6.2466936 -47.257126 -2.2229612 38
0.63386661 -4.7952909 -2.0203872 4
6.4045553 -48.45137 -1.134683 27
0.67821443 -5.1307888 -2.0209341 6
6.3237228 -47.839859 0 40
0.72629339 -5.4945126 -2.0172348 4
6.3822837 -48.282883 1.1307372 27
0.781645 -5.9132557 -2.0154567 6
6.8687458 -51.963036 2.4443259 30
0.84440148 -6.3880172 -2.0106547 5
0.92058033 -6.9643211 -2.014358 3
6.5910015 -49.861866 4.6923437 6
1.0106368 -7.6456108 -2.0189207 6
1.117029 -8.4504833 -2.0196993 4
1.2451568 -9.4197884 -2.0196545 3
1.4096206 -10.66398 -2.026675 2
0.43456599 -3.3643615 -2.0118055 4
1.5583645 -12.064686 -1.9986219 2
0.45856649 -3.5501709 -2.0112791 8
1.526845 -11.820664 -1.6750876 5
0.48636621 -3.7653933 -2.0187278 5
1.5810366 -12.24021 -1.4432887 2
0.51330084 -3.973918 -2.0126488 7
0.54489458 -4.2185135 -2.0133739 3
0.57648045 -4.4630475 -2.0035849 3
6.1026101 -47.245731 -2.2215638 38
0.61987209 -4.7989812 -2.021158 3
6.5291986 -50.548332 -1.1833328 30
0.66298783 -5.1327782 -2.0209341 5
6.121284 -47.390301 0 38
0.71022809 -5.498507 -2.0179188 4
6.2453985 -48.351181 1.1318977 27
0.76458174 -5.9193068 -2.016737 6
0.8254438 -6.3904943 -2.0106547 5
0.89868098 -6.9574885 -2.0116014 3
0.98745126 -7.6447382 -2.0179076 6
1.0917014 -8.4518309 -2.0192382 4
1.216951 -9.4215002 -2.0192387 3
1.3774698 -10.664218 -2.0259342 2
0.42387614 -3.3553219 -2.0056844 4
1.5479203 -12.253039 -2.0291007 3
0.44974399 -3.5600867 -2.0161774 7
1.4918457 -11.809163 -1.6728607 2
0.47496468 -3.7597287 -2.0149722 4
1.5451086 -12.230782 -1.4416625 1
0.50197828 -3.9735632 -2.0117512 7
0.53333938 -4.2218118 -2.0142293 4
0.56447381 -4.4682655 -2.0052118 3
5.9581399 -47.163486 -2.2169056 38
0.60531271 -4.7915387 -2.0173037 4
5.9843087 -47.370632 -1.1085477 24
0.6479522 -5.1290646 -2.0187516 5
5.9768972 -47.311966 0 37
0.69463599 -5.4986043 -2.0172348 4
6.1346679 -48.560848 1.1364006 27
0.7473374 -5.9157791 -2.0148163 6
0.80783528 -6.3946681 -2.0112505 5
0.87949055 -6.9618773 -2.0121527 3
0.96537304 -7.6417069 -2.0163879 6
1.0680965 -8.4548464 -2.0192382 4
1.1903927 -9.4229202 -2.0188227 3
1.3471934 -10.664123 -2.0251937 2
0.41492611 -3.3599072 -2.0077248 4
1.5139385 -12.259274 -2.0294247 3
0.43937296 -3.5578678 -2.0142181 7
1.4581336 -11.807387 -1.6720258 2
0.46403056 -3.7575352 -2.0130942 5
1.457141 -11.79935 -1.3903239 0
0.49109876 -3.976723 -2.0126488 7
0.52154756 -4.2232847 -2.0142293 3
3.5598314 -28.826101 -2.0310295 2
0.55221742 -4.4716377 -2.0060251 3
5.8087783 -47.037182 -2.2101974 37
0.59306043 -4.8023682 -2.021158 4
5.8439121 -47.321682 -1.1070157 24
0.6345396 -5.1382499 -2.0216615 6
5.8381329 -47.274883 0 37
0.67950827 -5.502388 -2.0179188 4
5.9463463 -48.151154 1.12642 26
0.7301175 -5.9122019 -2.0128956 5
6.3775849 -51.64315 2.4266241 31
0.78997445 -6.3968997 -2.0112505 5
0.86051673 -6.968123 -2.0132554 3
0.9430806 -7.6366925 -2.0143621 5
1.0444814 -8.4577961 -2.0192382 4
1.1640738 -9.4262075 -2.0188227 3
1.3169259 -10.663943 -2.0244532 2
0.40436849 -3.3611939 -2.0077248 4
1.474474 -12.25613 -2.0281277 3
0.4275685 -3.5540373 -2.0112791 8
1.4236341 -11.833538 -1.6750876 1
0.45243442 -3.7607279 -2.0140333 5
1.4181664 -11.788091 -1.3884655 0
0.47860295 -3.978246 -2.0126488 7
0.50827694 -4.2249026 -2.0142293 4
0.53707534 -4.4642806 -2.0019579 4
5.6569195 -47.021477 -2.2086136 37
0.57708853 -4.7968783 -2.0180745 4
5.6842294 -47.248482 -1.1048803 23
0.61883903 -5.1439171 -2.0231166 5
5.6762061 -47.181789 0 37
0.66199392 -5.5026298 -2.0172348 4
5.7257848 -47.593899 1.1129577 25
0.71153992 -5.9144659 -2.0128956 5
0.76987386 -6.3993497 -2.0112505 5
0.83816189 -6.9669738 -2.0121527 3
0.91931534 -7.6415381 -2.0148685 6
1.017905 -8.4610357 -2.0192382 4
1.1342207 -9.4278755 -2.0184069 3
1.2838867 -10.671929 -2.0251937 2
0.39518154 -3.3640184 -2.008745 4
1.4395525 -12.25432 -2.0271552 3
0.41703197 -3.5500221 -2.0083401 8
1.4284792 -12.160058 -1.7207363 1
0.44234297 -3.7654843 -2.0159111 5
1.3847795 -11.78806 -1.388001 0
0.46811751 -3.9848924 -2.0153418 7
0.49689883 -4.2298961 -2.0159409 4
0.52503318 -4.4693918 -2.0035849 3
5.5104403 -46.908119 -2.2025578 36
0.5632605 -4.7948055 -2.0165329 4
0.60360295 -5.1382241 -2.0202067 6
5.5334625 -47.104099 0 36
0.64684469 -5.5063233 -2.0179188 4
5.618052 -47.824173 1.1179713 25
0.69568431 -5.9220753 -2.0148163 6
0.75133258 -6.3957858 -2.0094631 4
0.81982511 -6.9788346 -2.0149093 3
0.89865017 -7.6498404 -2.0163879 6
0.99381971 -8.4599791 -2.018316 4
1.1078892 -9.4310064 -2.0184069 3
1.2522461 -10.659858 -2.0222313 2
0.38578567 -3.365109 -2.008745 4
1.4055502 -12.260253 -2.0274794 3
0.40771237 -3.55637 -2.0112791 7
0.43162465 -3.7649505 -2.0149722 5
1.3511759 -11.78596 -1.3873039 0
0.45637676 -3.9808571 -2.0126488 7
0.48549628 -4.234859 -2.017652 3
0.51234186 -4.4690261 -2.0027714 4
5.3725972 -46.863785 -2.1997628 36
0.55028874 -4.8000269 -2.0180745 4
5.5985703 -48.834888 -1.1412284 28
0.58988816 -5.1454425 -2.0223892 5
5.3941531 -47.051811 0 36
0.63060898 -5.5006399 -2.0151827 4
5.4660301 -47.678772 1.1142111 25
0.67914367 -5.9239955 -2.0148163 6
5.8477139 -51.008102 2.3942952 31
0.73433858 -6.4054461 -2.0118461 5
5.8666229 -51.173038 3.6018057 28
0.79901904 -6.9696369 -2.0116014 3
0.87662262 -7.6465535 -2.0148685 6
0.9706338 -8.466589 -2.0192382 4
1.0815479 -9.4340639 -2.0184069 3
1.2222486 -10.66136 -2.0218608 2
0.37619603 -3.3644636 -2.0077248 4
1.3697734 -12.250401 -2.0252097 3
0.39816719 -3.5609601 -2.0132384 7
0.42091322 -3.7643864 -2.0140333 4
1.3187003 -11.793636 -1.3877686 0
0.4458544 -3.9874449 -2.0153418 7
0.47306606 -4.2308087 -2.015085 3
0.50006318 -4.4722548 -2.0035849 4
5.23172 -46.789257 -2.1955705 35
0.53708768 -4.8033786 -2.0188456 3
5.4579568 -48.812572 -1.1403464 28
0.57510334 -5.1433668 -2.0209341 6
5.2514071 -46.965324 0 35
0.61587268 -5.5079827 -2.0172348 4
5.3566408 -47.906467 1.1191782 25
0.66280901 -5.927752 -2.0154567 6
5.8377876 -52.209549 2.4499159 30
0.7160244 -6.4036775 -2.0106547 5
0.77998066 -6.9756627 -2.0127041 3
0.85591143 -7.6547403 -2.0163879 6
0.94590592 -8.4595957 -2.0169325 4
1.0549819 -9.4351034 -2.0179911 3
1.1922539 -10.662779 -2.0214906 2
0.36695597 -3.3724055 -2.0118055 4
1.3338459 -12.258335 -2.0258582 3
0.38665661 -3.5534589 -2.0083401 8
0.40935993 -3.7621074 -2.0121553 4
0.43382791 -3.9869733 -2.0144441 7
1.2961235 -11.911659 -1.1178616 0
0.46031511 -4.2303967 -2.0142293 3
0.48639604 -4.4700861 -2.0019579 4
5.0866008 -46.746975 -2.1928685 35
0.52283317 -4.8049512 -2.0188456 4
0.55923522 -5.1394944 -2.0187516 6
5.110518 -46.966782 0 35
0.59932387 -5.5079174 -2.0165508 4
5.2177172 -47.951962 1.1198745 25
0.64460284 -5.9240413 -2.013536 5
0.69702077 -6.4057736 -2.0106547 5
0.75886369 -6.9741235 -2.0116014 3
0.83298588 -7.655323 -2.0158815 6
0.92122227 -8.4662342 -2.0178549 4
1.0257126 -9.4265232 -2.015496 3
1.160611 -10.666269 -2.0214906 2
0.35617858 -3.3718312 -2.0107853 4
1.2944988 -12.254615 -2.0245612 3
0.37530786 -3.552922 -2.0073602 8
0.3982808 -3.7703996 -2.0159111 5
1.2443362 -11.779741 -1.3852133 0
0.42092463 -3.9847615 -2.0126488 7
0.4474023 -4.2354174 -2.0159409 3
0.47273412 -4.4752259 -2.0035849 4
4.9392943 -46.758751 -2.1926823 35
0.50812286 -4.8102403 -2.0203872 4
5.1869783 -49.103497 -1.1463813 29
0.54406464 -5.1504893 -2.0223892 5
4.9497046 -46.8573 0 35
0.58241189 -5.5135107 -2.0179188 4
5.0676742 -47.974083 1.1200137 25
0.6269837 -5.9354587 -2.016737 6
0.67689276 -6.4079318 -2.0106547 5
0.7369498 -6.9764729 -2.0116014 3
0.80791527 -7.6482806 -2.0133491 5
0.89380217 -8.4613447 -2.0160103 4
0.99670935 -9.4355354 -2.0167437 3
1.1266828 -10.665954 -2.02075 2
0.34735048 -3.372752 -2.0107853 4
1.2624139 -12.257962 -2.0245612 3
0.36618426 -3.5556269 -2.0083401 8
0.38804734 -3.7679162 -2.0140333 5
0.41140723 -3.9947393 -2.0171373 7
0.43612796 -4.234776 -2.015085 3
1.2692726 -12.32456 -0.86637545 1
0.46082997 -4.4746308 -2.0027714 4
4.8039765 -46.646324 -2.1868126 35
0.49477255 -4.8042116 -2.0173037 4
0.53038877 -5.150043 -2.0216615 5
4.8163686 -46.766647 0 34
0.568169 -5.5168862 -2.0186028 4
4.9496479 -48.06078 1.1217314 26
0.61124939 -5.9351945 -2.0160968 6
5.3164663 -51.622566 2.4201024 31
0.66011554 -6.4096818 -2.0106547 5
0.71809316 -6.972641 -2.0099478 3
0.78769237 -7.6484456 -2.0128424 5
0.87164867 -8.4636564 -2.0160103 4
0.97180492 -9.4361668 -2.0163279 3
1.0985559 -10.666911 -2.0203798 2
0.3374362 -3.3806736 -2.0148661 4
1.2237016 -12.259904 -2.0242369 3
0.35639736 -3.5706396 -2.0161774 8
0.37603256 -3.767359 -2.0130942 4
0.39814511 -3.988898 -2.0135465 7
0.4230012 -4.2379241 -2.0159409 3
1.2158834 -12.181576 -0.85605145 1
0.44731441 -4.4815106 -2.0052118 3
4.6397471 -46.484253 -2.1785207 34
0.47986028 -4.8075781 -2.0180745 4
0.5143916 -5.1535373 -2.0223892 5
4.6684275 -46.771591 0 34
0.55102074 -5.520514 -2.0192869 4
4.8016124 -48.105934 1.1224277 26
0.59165919 -5.9276586 -2.0128956 5
5.134418 -51.440216 2.4107857 31
0.64016503 -6.4136238 -2.0112505 5
5.1930666 -52.027798 3.6562157 26
0.69675696 -6.9806018 -2.0116014 3
4.7249813 -47.338188 4.4383769 8
0.76365983 -7.6508822 -2.0128424 6
0.84582782 -8.4740992 -2.0178549 4
0.94234931 -9.4411192 -2.0167437 3
1.0644532 -10.664442 -2.0192688 2
0.32674077 -3.3748109 -2.0107853 4
1.1873196 -12.263481 -2.0242369 3
0.34462509 -3.5595329 -2.0093198 8
0.36536327 -3.7737315 -2.0159111 4
0.38630784 -3.990062 -2.0135465 7
0.41042492 -4.2391605 -2.0159409 3
1.1670444 -12.054065 -0.8468436 1
0.4338392 -4.4809995 -2.0043983 3
4.4985294 -46.464012 -2.1769369 34
0.46612704 -4.8144913 -2.0203872 4
0.49891868 -5.1531868 -2.0216615 5
4.5198007 -46.683712 0 34
0.53373277 -5.5127716 -2.0158665 4
4.6536531 -48.066238 1.1211743 26
0.57425117 -5.9312744 -2.013536 6
0.62113225 -6.4154954 -2.0112505 5
0.6760416 -6.9826384 -2.0116014 3
0.74114186 -7.6550403 -2.0133491 6
0.81993026 -8.4688225 -2.0160103 4
0.91338974 -9.4341383 -2.0146644 3
1.0324272 -10.663642 -2.0185282 2
0.31774366 -3.3739421 -2.0097654 4
1.1541015 -12.254758 -2.0222914 3
0.33546913 -3.5621588 -2.0102994 8
0.35597971 -3.7799494 -2.0187278 5
0.37602881 -3.9928393 -2.0144441 7
0.3991566 -4.2384205 -2.015085 3
0.42193586 -4.4803009 -2.0035849 4
4.3647032 -46.34634 -2.170881 33
0.45300281 -4.810183 -2.0180745 4
4.4920006 -47.69804 -1.1123078 24
0.48490274 -5.1489105 -2.019479 5
4.8369384 -51.360744 0 42
0.51947564 -5.5160213 -2.0165508 4
4.5274329 -48.074276 1.1210815 26
0.55907738 -5.9365301 -2.0148163 6
0.60415637 -6.4151983 -2.0106547 5
0.65757966 -6.98247 -2.0110502 3
0.72146255 -7.6608067 -2.0143621 6
0.79794002 -8.4728775 -2.0164714 4
0.88997352 -9.4501305 -2.0175753 3
1.0052452 -10.674135 -2.0200095 2
0.3084769 -3.3765295 -2.0107853 4
1.1202337 -12.261864 -2.0229399 3
0.32504424 -3.5578725 -2.0073602 8
0.34445849 -3.7703772 -2.0130942 4
0.36455172 -3.9903138 -2.0126488 7
0.38731888 -4.2395186 -2.015085 3
0.40975505 -4.4851007 -2.0052118 3
4.2256265 -46.252903 -2.1659431 33
0.43923241 -4.807754 -2.0165329 4
4.3502321 -47.616814 -1.110126 24
0.47052205 -5.1502447 -2.019479 5
4.6782055 -51.206749 0 43
0.50406963 -5.5174503 -2.0165508 4
4.6734891 -51.155121 1.1926172 28
0.54232454 -5.9361811 -2.0141761 6
4.3439546 -47.5481 2.2265949 25
0.58606529 -6.4149594 -2.0100589 5
0.63825279 -6.9861941 -2.0116014 3
4.4807901 -49.045876 4.5948071 5
0.69936216 -7.6550851 -2.012336 6
0.77445263 -8.4770107 -2.0169325 4
0.86268979 -9.4428377 -2.015496 3
0.97453862 -10.667114 -2.018158 2
0.29801866 -3.3791955 -2.0118055 4
1.0810122 -12.257459 -2.0216429 3
0.3138651 -3.5588763 -2.0073602 8
0.33245653 -3.7696819 -2.0121553 4
0.35217083 -3.9932199 -2.0135465 7
0.37399793 -4.2407146 -2.015085 3
1.0498939 -11.904612 -0.83568257 12
0.39550194 -4.4845457 -2.0043983 4
4.0748549 -46.204258 -2.1630549 32
0.424126 -4.8091106 -2.0165329 4
0.45417586 -5.1498418 -2.0187516 5
0.486238 -5.5133905 -2.0144987 4
4.2109799 -47.747761 1.1128649 25
0.52317321 -5.9321938 -2.0122554 5
4.2224603 -47.877934 2.2414083 26
0.56557345 -6.4129648 -2.0088675 5
0.61596376 -6.9843345 -2.010499 3
0.67564911 -7.6610985 -2.0133491 6
0.74730426 -8.473587 -2.0155494 4
0.83267587 -9.4416046 -2.0146644 3
0.94067633 -10.666208 -2.0174174 2
0.28667229 -3.3715446 -2.0067048 4
1.042164 -12.256862 -2.0209944 3
0.3035692 -3.5702689 -2.0132384 8
0.32061192 -3.7707076 -2.0121553 5
0.33992672 -3.9978685 -2.0153418 7
0.36067331 -4.2418685 -2.015085 4
1.0135028 -11.919779 -0.83651966 10
0.3812564 -4.4839458 -2.0035849 3
3.9425416 -46.368122 -2.1701357 33
0.40932813 -4.8140965 -2.0180745 4
3.9450853 -46.398037 -1.0811125 21
0.43831035 -5.1549559 -2.0202067 6
3.9410651 -46.350758 0 32
0.46986988 -5.5261264 -2.0186028 4
0.50565749 -5.9470234 -2.016737 6
0.54574698 -6.4185152 -2.0100589 6
0.59418142 -6.9881506 -2.0110502 3
0.6514135 -7.6612558 -2.0128424 6
0.72051477 -8.4739532 -2.0150883 4
0.80300969 -9.4441748 -2.0146644 3
0.90682924 -10.665194 -2.0166767 2
0.27840978 -3.3791416 -2.0107853 4
1.0103967 -12.263482 -2.0216429 3
0.29493725 -3.5797403 -2.018137 7
0.31088427 -3.773294 -2.0130942 5
0.32945931 -3.9987447 -2.0153418 7
0.34927019 -4.2391953 -2.0133739 4
0.36966637 -4.4867496 -2.0043983 3
3.8211389 -46.378284 -2.1701357 33
0.3964206 -4.8114734 -2.0165329 4
0.42496642 -5.1579423 -2.0209341 5
3.8100183 -46.243313 0 32
0.4549382 -5.5217185 -2.0165508 4
4.392983 -53.318924 1.2421026 23
0.4894644 -5.9407735 -2.0141761 6
0.52878499 -6.4180188 -2.0094631 5
0.57620043 -6.9935141 -2.0121527 3
0.63135445 -7.6629348 -2.0128424 7
0.6988073 -8.4816294 -2.0164714 4
0.77780056 -9.4403944 -2.013417 3
0.87922806 -10.67145 -2.0174174 2
0.26811033 -3.3765225 -2.008745 4
0.97353792 -12.260523 -2.0206702 3
0.28321072 -3.566694 -2.0102994 8
0.30010691 -3.7794809 -2.0159111 5
0.31745216 -3.9979229 -2.0144441 7
0.3368341 -4.2420149 -2.0142293 4
0.35591871 -4.4823623 -2.0019579 4
3.6629601 -46.130516 -2.1580241 32
0.38228932 -4.8144679 -2.0173037 4
0.4095135 -5.1573234 -2.0202067 4
3.6697903 -46.216534 0 32
0.43870202 -5.5249171 -2.0172348 4
0.471986 -5.944088 -2.0148163 6
0.51019382 -6.4252691 -2.0112505 5
0.55499166 -6.9894433 -2.010499 3
0.60846269 -7.6628456 -2.012336 6
0.6733312 -8.4797859 -2.0155494 4
0.74994242 -9.4446106 -2.0138328 3
0.84756207 -10.674011 -2.0174174 2
0.25822169 -3.3790188 -2.0097654 4
0.93700486 -12.261391 -2.0203462 3
0.27302527 -3.5727344 -2.0132384 8
0.28848776 -3.7750721 -2.0130942 5
0.30545223 -3.9970648 -2.0135465 7
0.32369509 -4.235786 -2.0108068 3
0.34261745 -4.4833989 -2.0019579 4
3.5307879 -46.20293 -2.160912 32
0.36772129 -4.8119006 -2.0157621 4
0.3939254 -5.1548004 -2.0187516 6
3.5285294 -46.173374 0 31
0.42230701 -5.5261946 -2.0172348 4
3.9726014 -51.984383 1.210443 26
0.45405835 -5.9416842 -2.013536 5
0.49054512 -6.4191399 -2.0088675 5
0.53410423 -6.9891424 -2.0099478 3
0.58557594 -7.6626873 -2.0118294 5
0.64787114 -8.4778652 -2.0146272 4
0.72206491 -9.4487448 -2.0142486 3
0.81528825 -10.668639 -2.0159361 2
0.24975444 -3.3848298 -2.0128257 4
0.90446621 -12.257896 -2.0193732 3
0.2637994 -3.5751755 -2.0142181 7
0.2791236 -3.7828588 -2.01685 5
0.29498705 -3.9978507 -2.0135465 8
0.31353605 -4.249238 -2.0167964 3
0.33114785 -4.4879241 -2.0035849 4
3.4011452 -46.094463 -2.1554153 31
0.35525852 -4.8146873 -2.0165329 4
0.38111448 -5.1651039 -2.0223892 6
3.3992488 -46.068764 0 31
0.40783826 -5.5272813 -2.0172348 4
3.8354654 -51.980644 1.2101181 26
0.43850178 -5.9428525 -2.013536 6
0.47401944 -6.4242101 -2.0100589 5
0.51552224 -6.9866819 -2.0088453 3
0.56508631 -7.6584058 -2.0103099 5
0.62553102 -8.4775906 -2.0141659 4
0.69703817 -9.4467001 -2.013417 3
0.78750002 -10.672696 -2.0163064 2
0.23946759 -3.3821242 -2.0107853 4
0.86767501 -12.254621 -2.0184007 3
0.25331387 -3.5776823 -2.015198 7
0.26752451 -3.7783864 -2.0140333 5
0.28274551 -3.9933603 -2.0108533 8
0.30079952 -4.2483468 -2.0159409 3
0.31808886 -4.4925327 -2.0052118 4
3.2563255 -45.990761 -2.1501048 31
0.34110215 -4.8175611 -2.0173037 4
3.3853745 -47.813389 -1.1128649 24
0.36539325 -5.1606369 -2.0202067 5
3.2588754 -46.026775 0 31
0.39156979 -5.5303416 -2.0179188 4
3.6772683 -51.935951 1.2088183 26
0.42086744 -5.9441276 -2.013536 6
0.45468706 -6.4217796 -2.0088675 5
0.49519786 -6.9939342 -2.010499 3
0.54304463 -7.6696987 -2.0128424 6
0.6001004 -8.4755268 -2.0132437 4
0.6687305 -9.4448252 -2.0125854 3
0.75569195 -10.673027 -2.0159361 2
0.22954778 -3.384536 -2.0118055 4
0.83144385 -12.25911 -2.0187249 3
0.24305131 -3.583637 -2.018137 7
0.25702935 -3.7897344 -2.0196667 5
0.27113736 -3.9977477 -2.0126488 8
0.28782591 -4.2438097 -2.0133739 3
0.30463395 -4.4916334 -2.0043983 4
3.111064 -45.870659 -2.1440489 30
0.32718098 -4.8240757 -2.0196164 4
0.35020548 -5.1635571 -2.0209341 5
3.1147156 -45.9245 0 30
0.37528607 -5.5333543 -2.0186028 4
0.40284401 -5.9396787 -2.011615 5
0.43563089 -6.4231005 -2.0088675 5
0.47431374 -6.9934545 -2.0099478 3
0.52015442 -7.6693463 -2.012336 6
0.57494986 -8.4772701 -2.0132437 4
0.640836 -9.448719 -2.0130012 3
0.72362149 -10.669339 -2.0148253 2
0.21917053 -3.3800523 -2.008745 4
0.79442739 -12.251676 -2.0171037 3
0.23174022 -3.5739024 -2.0122588 6
0.24521232 -3.7816694 -2.0149722 5
0.25939003 -4.0003181 -2.0135465 7
0.27558365 -4.2500567 -2.0159409 3
0.29106894 -4.4888716 -2.0027714 4
2.967061 -45.75808 -2.138366 30
0.31262714 -4.821342 -2.0180745 4
0.33464196 -5.1608553 -2.019479 5
2.9757209 -45.891628 0 30
0.3589879 -5.5363188 -2.0192869 4
0.38583153 -5.9503016 -2.0148163 6
0.41657087 -6.4243646 -2.0088675 5
0.45306367 -6.9871573 -2.0077426 3
0.49752146 -7.6727862 -2.0128424 6
0.55029804 -8.4867077 -2.0150883 4
0.6125446 -9.4466753 -2.0121696 3
0.69183397 -10.669477 -2.0144548 2
0.2098375 -3.3823683 -2.0097654 4
0.76057851 -12.259756 -2.0180764 3
0.2220832 -3.5797565 -2.015198 7
0.73555869 -11.856462 -1.6695206 0
0.23454183 -3.7805769 -2.0140333 5
0.24843958 -4.0045948 -2.0153418 7
0.73131442 -11.788049 -1.1018842 0
0.26337862 -4.2453971 -2.0133739 3
0.27864587 -4.4914899 -2.0035849 3
0.7664746 -12.354795 -0.57726187 0
0.29939097 -4.8258801 -2.0196164 4
0.31988305 -5.1561913 -2.0172968 4
2.8418617 -45.807938 0 29
0.34306103 -5.5297971 -2.0165508 4
0.368862 -5.9456825 -2.0128956 6
0.3980383 -6.4159751 -2.0058887 4
0.43414569 -6.9979892 -2.010499 3
0.47561431 -7.6664214 -2.0108166 6
0.52551246 -8.4707298 -2.0109379 3
0.58616263 -9.448349 -2.0121696 3
0.66203707 -10.671368 -2.0144548 2
0.20059453 -3.3863754 -2.0118055 4
0.72587216 -12.253952 -2.0167794 3
0.21208552 -3.5803628 -2.015198 7
0.70185995 -11.848585 -1.668129 0
0.22398329 -3.7812173 -2.0140333 5
0.23725539 -4.0052729 -2.0153418 7
0.69839233 -11.790046 -1.1018842 0
0.25173572 -4.2497253 -2.015085 3
0.26620993 -4.4940748 -2.0043983 3
0.72393644 -12.221273 -0.57092655 0
0.2854766 -4.8193288 -2.0165329 4
0.30592331 -5.1645036 -2.0202067 5
2.7081325 -45.717861 0 29
0.3276172 -5.5307336 -2.0165508 4
0.35248077 -5.9504724 -2.0141761 6
0.38079691 -6.4284968 -2.0094631 5
0.41414669 -6.9914975 -2.0082939 3
0.45420322 -7.6677198 -2.0108166 5
0.5024305 -8.4818773 -2.0132437 4
0.55942792 -9.4440899 -2.0109222 3
0.63188499 -10.667289 -2.013344 2
0.18977328 -3.3732152 -2.0036442 4
0.689179 -12.25014 -2.0158067 3
0.20165753 -3.5844576 -2.0171571 7
0.66781461 -11.870388 -1.6709124 0
0.21266425 -3.7801018 -2.0130942 5
0.22516993 -4.0023899 -2.0135465 7
0.66385567 -11.800018 -1.1026274 0
0.23902415 -4.2486482 -2.0142293 3
0.25246435 -4.4875474 -2.0011444 4
0.6798175 -12.083739 -0.56440485 0
0.27128008 -4.8219967 -2.0173037 4
2.6745462 -47.539993 -1.1054838 24
0.2905989 -5.1653881 -2.0202067 6
2.5701168 -45.683762 0 29
0.31110051 -5.5298042 -2.0158665 4
0.33482417 -5.9514914 -2.0141761 6
0.36150745 -6.425786 -2.0082717 5
0.39361709 -6.9965343 -2.0093966 3
0.43177718 -7.6748285 -2.012336 6
0.47726256 -8.4833307 -2.0132437 4
0.53173453 -9.4515676 -2.0121696 3
0.60056365 -10.675004 -2.0144548 2
0.18003872 -3.3789172 -2.0067048 4
0.65261984 -12.24819 -2.0151582 3
0.19074325 -3.5798168 -2.0142181 7
0.6304847 -11.832764 -1.6653454 0
0.20154174 -3.7824798 -2.0140333 5
0.21329387 -4.0030408 -2.0135465 7
0.22632119 -4.2475338 -2.0133739 3
0.23934314 -4.4919262 -2.0027714 4
0.64428097 -12.091689 -0.56468433 0
0.25697204 -4.8227806 -2.0173037 4
2.4323103 -45.64893 -1.0613369 18
0.27527192 -5.1662278 -2.0202067 5
2.4296668 -45.599319 0 28
0.29469225 -5.5307031 -2.0158665 4
0.31706384 -5.9505672 -2.013536 6
0.34233898 -6.4249239 -2.0076759 5
0.3725498 -6.9919124 -2.0077426 3
0.40910703 -7.6780081 -2.0128424 6
0.45198694 -8.4827671 -2.0127826 4
0.50337714 -9.4472437 -2.0109222 3
0.56847 -10.668889 -2.0129738 2
0.17060208 -3.3794067 -2.0067048 4
0.61801511 -12.242081 -2.0138612 3
0.18092138 -3.5838184 -2.0161774 7
0.599635 -11.877994 -1.671469 0
0.19106705 -3.7847912 -2.0149722 5
0.20202407 -4.0018358 -2.0126488 7
0.21454982 -4.2499547 -2.0142293 3
0.22670597 -4.4907522 -2.0019579 4
0.24340995 -4.8216362 -2.0165329 4
0.26084369 -5.1669765 -2.0202067 5
2.2996955 -45.553993 0 28
0.27915135 -5.5296273 -2.0151827 4
0.30054063 -5.9533215 -2.0141761 6
0.32439548 -6.4258547 -2.0076759 5
0.35321668 -6.9967656 -2.0088453 3
0.38746879 -7.6752553 -2.0118294 6
0.42819816 -8.4820518 -2.0123215 4
0.47699288 -9.4486122 -2.0109222 3
0.538773 -10.672397 -2.013344 2
0.16022837 -3.3850811 -2.0097654 4
0.57964522 -12.245933 -2.0141854 3
0.16966142 -3.5843692 -2.0161774 7
0.55857003 -11.800686 -1.6603352 0
0.17917567 -3.785373 -2.0149722 5
0.18945076 -4.0024505 -2.0126488 8
0.20153883 -4.2578306 -2.017652 3
0.21259654 -4.4914422 -2.0019579 3
0.56817007 -12.003502 -0.5603987 0
0.22852266 -4.8279071 -2.0188456 4
0.2443454 -5.1621876 -2.0180242 5
2.1533549 -45.493069 0 28
0.26186675 -5.5323544 -2.0158665 4
2.378432 -50.248184 1.1679208 30
0.28174642 -5.9523439 -2.013536 6
2.2074091 -46.635052 2.1772165 22
0.30429643 -6.4287491 -2.0082717 5
0.33141541 -7.0016813 -2.0099478 3
0.36353698 -7.6803007 -2.0128424 6
0.40182456 -8.4891872 -2.0137048 4
0.44730642 -9.4500647 -2.0109222 3
0.50524157 -10.674037 -2.013344 2
0.150775 -3.3855152 -2.0097654 4
0.54535872 -12.245533 -2.0138612 3
0.15949635 -3.5813451 -2.0142181 7
0.52631968 -11.818028 -1.6625619 0
0.16844729 -3.78233 -2.0130942 5
0.1783528 -4.0047493 -2.0135465 7
0.52396685 -11.765198 -1.0987259 0
0.18916559 -4.247541 -2.0125179 3
0.20021605 -4.4956689 -2.0035849 4
0.53269291 -11.961133 -0.55834901 2
0.21471155 -4.8211517 -2.0157621 4
0.23009494 -5.1665721 -2.019479 5
2.0223041 -45.408993 0 28
0.2465004 -5.5349422 -2.0165508 4
0.26503924 -5.9512143 -2.0128956 6
0.28591841 -6.4200377 -2.0052929 4
2.2875807 -51.365536 3.5953882 28
0.31160551 -6.9968176 -2.0082939 3
0.34157202 -7.6696882 -2.0098035 6
0.37759763 -8.478611 -2.0109379 4
0.42065448 -9.4454126 -2.0096745 3
0.47525775 -10.67148 -2.0126035 2
0.14132003 -3.3859231 -2.0097654 4
0.51124203 -12.24898 -2.0141854 3
0.14985804 -3.5904872 -2.0191166 7
0.49215838 -11.791749 -1.6586651 0
0.15810503 -3.788079 -2.0159111 5
0.16709393 -4.0034461 -2.0126488 7
0.49044502 -11.750698 -1.0972396 0
0.17730318 -4.2480526 -2.0125179 4
0.18743211 -4.4907341 -2.0011444 4
0.50003803 -11.980539 -0.55918753 0
0.20132415 -4.8235769 -2.0165329 4
1.9178226 -45.949604 -1.0677431 19
0.21574359 -5.1690559 -2.0202067 5
1.8929017 -45.352516 0 27
0.23088585 -5.5318532 -2.0151827 4
0.24833986 -5.9500384 -2.0122554 6
0.26798874 -6.4208112 -2.0052929 4
1.916828 -45.925774 3.2142389 21
0.29198486 -6.9957399 -2.0077426 3
1.8991665 -45.502617 4.2488775 10
0.32015234 -7.6706123 -2.0098035 6
0.35399997 -8.481576 -2.011399 4
0.39427561 -9.4465504 -2.0096745 3
0.4452908 -10.668837 -2.0118628 2
0.1318648 -3.3863044 -2.0097654 4
0.47695982 -12.248387 -2.0138612 3
0.13949232 -3.58218 -2.0142181 7
0.46030864 -11.820784 -1.6625619 0
0.14732061 -3.7832119 -2.0130942 5
0.15584472 -4.0021119 -2.0117512 8
0.16551079 -4.2503376 -2.0133739 3
0.17482057 -4.4894137 -2.0003309 4
0.46572706 -11.959929 -0.55816269 1
0.18778241 -4.8222756 -2.0157621 4
1.7844505 -45.824909 -1.0647256 19
0.20101896 -5.1621919 -2.0172968 5
1.7630633 -45.275688 0 27
0.21565744 -5.5381098 -2.0172348 4
1.9675949 -50.52808 1.1740021 29
0.2320192 -5.958282 -2.0148163 6
0.25028139 -6.4272575 -2.0070801 5
0.27237433 -6.9946065 -2.0071914 3
0.2985062 -7.6656766 -2.0082839 6
0.3300879 -8.4766979 -2.010016 3
0.36766765 -9.4417505 -2.0084271 3
0.41549793 -10.670038 -2.0118628 2
0.12175482 -3.3849614 -2.008745 4
0.44004777 -12.23397 -2.0112672 3
0.12905098 -3.5878055 -2.0171571 7
0.42558897 -11.831993 -1.6639537 0
0.13590431 -3.778338 -2.0102773 5
0.14390504 -4.0007701 -2.0108533 8
0.15315874 -4.2580361 -2.0167964 3
0.16169623 -4.4953909 -2.0027714 4
0.43052578 -11.969244 -0.55853534 2
0.17367235 -4.8283448 -2.0180745 4
1.6490498 -45.845989 -1.065097 19
0.18590215 -5.1683507 -2.019479 6
1.6272795 -45.240742 0 27
0.19902161 -5.5330911 -2.0151827 4
1.6662993 -46.32555 1.0762383 20
0.21399872 -5.9494762 -2.011615 5
1.8130916 -50.40659 2.3521838 32
0.23127849 -6.4298792 -2.0076759 5
0.25168842 -6.9973054 -2.0077426 3
1.6826626 -46.780472 4.3672218 9
0.27603814 -7.6742625 -2.0103099 6
0.30514494 -8.4834738 -2.011399 4
0.3398622 -9.4486647 -2.0096745 3
0.38383687 -10.671225 -2.0118628 2
0.11100744 -3.3818886 -2.0067048 4
0.40167713 -12.237265 -2.0115917 3
0.1177792 -3.5881932 -2.0171571 7
0.38867635 -11.84119 -1.6650671 0
0.12420773 -3.7840412 -2.0130942 5
0.13133585 -4.0012026 -2.0108533 7
0.3868793 -11.786443 -1.1002122 0
0.13948475 -4.2494621 -2.0125179 3
0.14775291 -4.5013552 -2.0052118 4
0.39233217 -11.952566 -0.55769682 2
0.15844263 -4.8270221 -2.0173037 4
1.5032448 -45.796989 -1.0638437 18
0.16948143 -5.1633234 -2.0172968 5
1.4812758 -45.127697 0 26
0.18157668 -5.5318108 -2.0144987 4
1.6513586 -50.309341 1.1686636 30
0.19536945 -5.952013 -2.0122554 6
0.21082726 -6.4229417 -2.0052929 4
0.22945276 -6.9903755 -2.0055375 3
0.25161058 -7.6654229 -2.0077775 6
0.27836478 -8.4805012 -2.0104768 4
0.30992067 -9.441865 -2.0080111 3
0.35031113 -10.672378 -2.0118628 2
0.10166603 -3.3856244 -2.008745 4
0.3675611 -12.240312 -2.0119157 3
0.10770604 -3.5867655 -2.0161774 7
0.35477498 -11.814515 -1.6611702 0
0.11379897 -3.7896688 -2.0159111 5
0.12021526 -4.0033407 -2.0117512 7
0.35330555 -11.765581 -1.0981685 0
0.12756294 -4.2480288 -2.0116625 4
0.13501735 -4.4962716 -2.0027714 4
0.35943171 -11.969592 -0.55844218 2
0.14479592 -4.8219118 -2.0149913 4
1.3952111 -46.462532 -1.0792092 20
0.15511762 -5.1656389 -2.0180242 6
1.3541062 -45.093678 0 26
0.16595863 -5.5266604 -2.0124464 4
1.3980918 -46.558464 1.0814375 21
0.17851964 -5.9449596 -2.0096943 5
1.3941321 -46.426598 2.1660364 21
0.19306168 -6.4292307 -2.0070801 5
1.1581004 -38.566402 2.698041 4
0.2101614 -6.9986758 -2.0077426 3
0.23020318 -7.6660957 -2.0077775 6
0.2546227 -8.4793005 -2.010016 4
0.28349346 -9.4407387 -2.0075953 3
0.32044718 -10.67135 -2.0114925 2
0.091713108 -3.3893504 -2.0107853 4
0.33108088 -12.235429 -2.0109429 3
0.097016059 -3.5853262 -2.015198 7
0.32036126 -11.839273 -1.6645105 0
0.10245856 -3.7864594 -2.0140333 5
0.10809464 -3.9947464 -2.0072625 8
0.31747845 -11.732737 -1.0950102 2
0.11500688 -4.250195 -2.0125179 3
0.12152753 -4.4911723 -2.0003309 4
0.32391497 -11.970605 -0.55844218 2
0.13043819 -4.8204756 -2.0142205 4
0.13989067 -5.1698008 -2.019479 6
1.2185167 -45.031517 0 26
0.14981385 -5.5365219 -2.0158665 4
0.16108449 -5.9530396 -2.0122554 6
1.0517781 -38.869518 1.8133067 1
0.17388126 -6.4259577 -2.0058887 4
1.2531095 -46.309925 3.2394907 22
0.18939459 -6.9992685 -2.0077426 3
0.20761299 -7.6725473 -2.0092969 6
0.22946252 -8.4800186 -2.010016 3
0.25548044 -9.4415379 -2.0075953 3
0.28862315 -10.66636 -2.0103817 2
0.081656516 -3.3896077 -2.0107853 4
0.29477698 -12.236358 -2.0109429 3
0.086377978 -3.5855985 -2.015198 7
0.28489885 -11.826311 -1.6625619 0
0.091053575 -3.779685 -2.0102773 4
0.096241765 -3.9950497 -2.0072625 8
0.28271404 -11.735619 -1.095196 2
0.10226546 -4.2450967 -2.0099511 4
0.10815771 -4.489687 -1.9995174 4
0.28825247 -11.965522 -0.55816269 1
0.11617973 -4.8226862 -2.0149913 4
0.12450641 -5.1683307 -2.0187516 6
1.0833617 -44.970955 0 25
0.13334109 -5.5350633 -2.0151827 4
1.1581895 -48.077099 1.1165322 25
0.14342113 -5.9534917 -2.0122554 6
0.15495266 -6.4321713 -2.0076759 5
0.16858067 -6.9978776 -2.0071914 3
1.1158452 -46.319359 4.3226337 9
0.18466127 -7.6653929 -2.0072711 6
0.20430131 -8.4806623 -2.010016 4
0.22751343 -9.4442101 -2.0080111 3
0.25688016 -10.663239 -2.0096409 2
0.072671622 -3.3846502 -2.0077248 4
0.2626147 -12.231169 -2.0099704 3
0.076990761 -3.5858123 -2.015198 7
0.25359705 -11.811175 -1.6603352 0
0.081234045 -3.7834413 -2.0121553 4
0.085859321 -3.9988616 -2.009058 8
0.25267372 -11.768172 -1.0981685 0
0.091268055 -4.250771 -2.0125179 3
0.096521214 -4.4954348 -2.0019579 4
0.25735518 -11.986209 -0.55909437 0
0.10359339 -4.8248186 -2.0157621 4
0.11093555 -5.1667767 -2.0180242 6
0.96390897 -44.893658 0 25
0.11893079 -5.5391517 -2.0165508 4
1.0320215 -48.065971 1.1162072 25
0.12783468 -5.9538465 -2.0122554 6
0.13807203 -6.4306469 -2.0070801 5
0.1502187 -6.9963727 -2.00664 3
0.16459301 -7.6658502 -2.0072711 6
0.18205687 -8.4792223 -2.0095549 4
0.20270416 -9.4408607 -2.0071795 3
0.22904782 -10.667806 -2.0103817 2
0.062628657 -3.384851 -2.0077248 4
0.22624923 -12.227947 -2.0093219 3
0.066415414 -3.5895114 -2.0171571 7
0.21906376 -11.839599 -1.664232 0
0.069975115 -3.7819004 -2.0112164 4
0.073993862 -3.9990988 -2.009058 8
0.21701834 -11.729051 -1.0944529 0
0.078621693 -4.2492166 -2.0116625 4
0.21993959 -11.886934 -0.83135766 0
0.083148517 -4.4938745 -2.0011444 4
0.22160479 -11.976933 -0.5586285 0
0.089311294 -4.8269501 -2.0165329 4
0.72679627 -39.280693 -0.91213787 2
0.095708035 -5.1726708 -2.0202067 5
0.83010817 -44.864323 0 25
0.10249497 -5.5394802 -2.0165508 4
0.89039844 -48.122795 1.1174606 25
0.11009827 -5.9504104 -2.0109749 6
0.11899096 -6.4310284 -2.0070801 5
0.12942344 -6.9948654 -2.0060887 3
0.14191841 -7.6701736 -2.0082839 6
0.15689725 -8.4797249 -2.0095549 4
0.17469116 -9.4414215 -2.0071795 3
0.19739421 -10.668438 -2.0103817 2
0.052692022 -3.391902 -2.0118055 4
0.18996651 -12.228565 -2.0093219 3
0.055818796 -3.5931797 -2.0191166 7
0.1831335 -11.78871 -1.6569951 0
0.058780901 -3.7838569 -2.0121553 5
0.062294312 -4.0100226 -2.0144441 7
0.18280362 -11.767473 -1.0979828 0
0.066097669 -4.2548532 -2.0142293 3
0.18445179 -11.87357 -0.83038104 0
0.069814302 -4.4941015 -2.0011444 4
0.1862841 -11.99152 -0.55928069 0
0.074960113 -4.8253484 -2.0157621 5
0.60927993 -39.220695 -0.91069877 2
0.080243953 -5.1654811 -2.0172968 5
0.085941471 -5.5322428 -2.0138147 4
0.74639738 -48.047253 1.1156502 25
0.092442229 -5.9507108 -2.0109749 6
0.099849515 -6.4275346 -2.0058887 5
0.10866829 -6.9952188 -2.0060887 3
0.58014631 -37.345303 3.4845624 14
0.11906934 -7.6647573 -2.0067644 6
0.13170601 -8.4782076 -2.0090938 4
0.14658546 -9.4360304 -2.0059323 3
0.16558622 -10.659151 -2.0085301 2
0.041993413 -3.3886108 -2.0097654 4
0.15145151 -12.221208 -2.0080249 3
0.044422455 -3.5846198 -2.0142181 7
0.14649084 -11.820912 -1.6614486 0
0.046915445 -3.7857885 -2.0130942 4
0.049563572 -3.9994762 -2.009058 7
0.14566228 -11.754052 -1.0966823 0
0.052641053 -4.2478099 -2.0108068 4
0.1472982 -11.886062 -0.83121812 0
0.055695668 -4.4942985 -2.0011444 4
0.14856212 -11.988051 -0.55909437 0
0.05980083 -4.8255601 -2.0157621 4
0.46748209 -37.722939 -0.87588257 3
0.064016111 -5.1657076 -2.0172968 5
0.068514839 -5.5287271 -2.0124464 4
0.59597278 -48.091347 1.116625 25
0.073747516 -5.9509721 -2.0109749 5
0.079609506 -6.4239988 -2.0046973 5
0.086739808 -6.9993706 -2.0071914 3
0.095037743 -7.6689625 -2.0077775 6
0.10490213 -8.4649582 -2.0058658 3
0.1168928 -9.4325323 -2.0051005 3
0.13209949 -10.659619 -2.0085301 2
0.033713046 -3.3887033 -2.0097654 4
0.12160756 -12.223515 -2.0083492 3
0.035697818 -3.5882046 -2.0161774 7
0.1173887 -11.799451 -1.6583868 0
0.037699677 -3.7894237 -2.0149722 5
0.039861619 -4.0067334 -2.0126488 7
0.11682136 -11.742425 -1.0955676 0
0.042279143 -4.2497334 -2.0116625 3
0.11793602 -11.854465 -0.82898593 0
0.044749811 -4.4980755 -2.0027714 4
0.11920864 -11.982385 -0.55881482 0
0.048009153 -4.8256917 -2.0157621 4
0.051448859 -5.1714373 -2.019479 5
0.055042304 -5.5326366 -2.0138147 4
0.48528004 -48.778442 1.1325476 27
0.05922465 -5.9530292 -2.011615 6
0.063930899 -6.4260831 -2.0052929 5
0.38578296 -38.77739 2.7117131 4
0.069655366 -7.0014844 -2.0077426 3
0.076201722 -7.6594982 -2.005245 6
0.084275343 -8.4710274 -2.0072491 3
0.093863055 -9.4347467 -2.0055165 3
0.10599314 -10.654015 -2.0074193 2
0.02367064 -3.3905084 -2.0107853 4
0.085312352 -12.219875 -2.0077007 3
0.025087992 -3.5935256 -2.0191166 7
0.08239308 -11.801727 -1.6586651 0
0.026443981 -3.7877531 -2.0140333 5
0.027998438 -4.0104089 -2.0144441 7
0.081939407 -11.736745 -1.0950102 0
0.029695254 -4.2534556 -2.0133739 3
0.082972273 -11.884689 -0.83107865 0
0.031403843 -4.4981885 -2.0027714 3
0.083726168 -11.992674 -0.55928069 0
0.03366537 -4.8221221 -2.0142205 4
0.26453289 -37.890865 -0.87973559 3
0.036104999 -5.1715674 -2.019479 5
0.038652994 -5.5365343 -2.0151827 4
0.041575003 -5.9550738 -2.0122554 6
0.044877782 -6.428153 -2.0058887 5
0.27049211 -38.744442 2.7093413 4
0.048881687 -7.0016599 -2.0077426 3
0.27850226 -39.891792 3.7218087 18
0.053489197 -7.6616254 -2.0057516 6
0.059168641 -8.475131 -2.0081713 4
0.06588345 -9.4369392 -2.0059323 3
0.074409693 -10.658213 -2.0081599 2
0.013610912 -3.390564 -2.0107853 4
0.049031895 -12.214153 -2.0067279 3
0.01439791 -3.5866098 -2.015198 7
0.047377046 -11.80192 -1.6586651 0
0.015212705 -3.7895806 -2.0149722 5
0.016063577 -4.0015378 -2.0099556 8
0.047188129 -11.75486 -1.0966823 0
0.017082397 -4.2553325 -2.0142293 4
0.048615113 -12.110331 -0.8468436 2
0.018057602 -4.4982619 -2.0027714 3
0.048023291 -11.962904 -0.5578832 0
0.019365413 -4.8240466 -2.0149913 4
0.15112247 -37.645557 -0.87402576 3
0.02072343 -5.1623368 -2.0158417 6
0.022210864 -5.532866 -2.0138147 4
0.023860507 -5.9438024 -2.0084138 5
0.025812948 -6.4301677 -2.0064845 5
0.028068988 -6.9921613 -2.0049863 3
0.15956669 -39.749065 3.708432 18
0.030772487 -7.6656203 -2.0067644 6
0.033991456 -8.4674864 -2.0063269 3
0.037860237 -9.4312229 -2.0046847 3
0.042770725 -10.654456 -2.0074193 2
0.0041339868 -3.3837075 -2.0067048 4
0.014927366 -12.21819 -2.0073764 3
0.0043840413 -3.5883794 -2.0161774 7
0.01441406 -11.798044 -1.6581085 0
0.0046277321 -3.7878425 -2.0140333 4
0.0048888465 -4.0015669 -2.0099556 8
0.014351672 -11.746979 -1.0959392 0
0.0051922924 -4.2499404 -2.0116625 4
0.014817636 -12.128375 -0.84809923 1
0.0054867859 -4.4909863 -1.9995174 4
0.014630225 -11.974977 -0.55844218 0
0.0058937394 -4.8240814 -2.0149913 4
0.046169031 -37.789787 -0.87736815 3
0.0063070427 -5.1623745 -2.0158417 6
0.0067551411 -5.5291471 -2.0124464 4
0.0072594774 -5.9419508 -2.0077736 5
0.0078536719 -6.4283051 -2.0058887 5
0.0085543608 -7.0018253 -2.0077426 3
0.0093583176 -7.6598716 -2.005245 6
0.010342704 -8.465601 -2.0058658 3
0.011520131 -9.4293356 -2.0042689 3
0.013024198 -10.660429 -2.0085301 2
-0.0059114816 -3.3871453 -2.008745 4
-0.021313684 -12.212259 -2.0064037 3
-0.0062657273 -3.5901203 -2.0171571 7
-0.020563101 -11.782192 -1.6558818 0
-0.006610801 -3.7878394 -2.0140333 5
-0.0069838078 -4.001564 -2.0099556 7
-0.020491203 -11.740996 -1.0953819 0
-0.0074299057 -4.2571678 -2.015085 3
-0.021195125 -12.144327 -0.84921533 1
-0.0078443522 -4.4946365 -2.0011444 4
-0.02089606 -11.972971 -0.55834901 0
-0.0084128743 -4.8203869 -2.0134497 4
-0.066047534 -37.843746 -0.87862146 3
-0.0090292366 -5.1735482 -2.0202067 5
-0.0096498448 -5.5291429 -2.0124464 4
-0.084374882 -48.344898 1.1224277 26
-0.010390138 -5.9533148 -2.011615 6
-0.011219116 -6.4282999 -2.0058887 5
-0.067116149 -38.456036 2.6891122 4
-0.012203285 -6.9922066 -2.0049863 3
-0.013371907 -7.6618004 -2.0057516 6
-0.014778141 -8.4675407 -2.0063269 3
-0.016446479 -9.423461 -2.0030215 3
-0.018598447 -10.65649 -2.0077896 2
-0.016552631 -3.3871102 -2.008745 4
-0.059689701 -12.214106 -2.0067279 3
-0.017527508 -3.586596 -2.015198 7
-0.057607394 -11.788011 -1.6567167 0
-0.018519413 -3.789566 -2.0149722 5
-0.019572703 -4.0050974 -2.0117512 8
-0.057357576 -11.736891 -1.0950102 0
-0.020742502 -4.2444696 -2.0090954 4
-0.0219559 -4.492763 -2.0003309 4
-0.058413047 -11.952868 -0.55741733 0
-0.023610847 -4.8314095 -2.0180745 4
-0.025264392 -5.1697688 -2.0187516 6
-0.027038723 -5.5328445 -2.0138147 4
-0.029093238 -5.9532528 -2.011615 5
-0.1736868 -35.540955 1.6574385 2
-0.031386454 -6.4225059 -2.0041013 4
-0.034160804 -6.990212 -2.0044351 3
-0.16835532 -34.449989 3.2140613 10
-0.037442431 -7.6617208 -2.0057516 6
-0.041380003 -8.467453 -2.0063269 3
-0.046051484 -9.4233627 -2.0030215 3
-0.052057963 -10.652449 -2.0070488 2
-0.024841361 -3.3887799 -2.0097654 4
-0.089461513 -12.204057 -2.0051067 3
-0.026291054 -3.5865424 -2.015198 7
-0.086482994 -11.797736 -1.6581085 0
-0.027791843 -3.7912753 -2.0159111 5
-0.029371917 -4.006824 -2.0126488 7
-0.086021088 -11.734724 -1.0948244 0
-0.031140013 -4.2480221 -2.0108068 4
-0.032960374 -4.4963503 -2.0019579 4
-0.08780925 -11.97866 -0.5586285 0
-0.035348352 -4.8221102 -2.0142205 4
-0.27513376 -37.532879 -0.87142617 3
-0.037868973 -5.1659656 -2.0172968 5
-0.040530208 -5.5290027 -2.0124464 4
-0.043625619 -5.9512687 -2.0109749 6
-0.26041096 -35.524441 1.6566932 2
-0.04712129 -6.4281373 -2.0058887 5
-0.051226705 -6.9881849 -2.0038838 3
-0.27641192 -37.707237 3.5180037 15
-0.056177389 -7.6635413 -2.006258 6
-0.062083773 -8.4692717 -2.006788 4
-0.069134034 -9.4310455 -2.0046847 3
-0.078086324 -10.652289 -2.0070488 2
-0.035397481 -3.3800845 -2.0046644 4
-0.12778109 -12.20174 -2.0047824 3
-0.037558533 -3.586442 -2.015198 7
-0.12327716 -11.771662 -1.65449 0
-0.039647032 -3.7858715 -2.0130942 5
-0.041922327 -4.0031381 -2.0108533 7
-0.12269922 -11.716475 -1.0931524 0
-0.044447731 -4.2442875 -2.0090954 3
-0.047086108 -4.4962244 -2.0019579 4
-0.12506483 -11.942366 -0.55695146 0
-0.050478168 -4.8201303 -2.0134497 4
-0.39348674 -37.573814 -0.872401 3
-0.054137386 -5.1695466 -2.0187516 5
-0.057959169 -5.5344863 -2.0144987 4
-0.50525343 -48.246349 1.1201994 25
-0.062381651 -5.9567866 -2.0128956 6
-0.37180534 -35.503471 1.6557615 2
-0.067255951 -6.4222302 -2.0041013 5
-0.073261313 -6.9956789 -2.0060887 3
-0.40940756 -39.094082 3.647495 17
-0.080232903 -7.6613922 -2.0057516 6
-0.088650085 -8.4651432 -2.0058658 3
-0.098701157 -9.4249144 -2.0034373 3
-0.11151039 -10.648061 -2.0063083 2
-0.044927407 -3.3868525 -2.008745 4
-0.16190602 -12.205284 -2.0054309 3
-0.047573436 -3.5863233 -2.015198 7
-0.15625381 -11.779193 -1.6556034 0
-0.050265674 -3.7892778 -2.0149722 5
-0.053148232 -4.0065794 -2.0126488 7
-0.15554878 -11.726044 -1.0940813 0
-0.056371558 -4.2495699 -2.0116625 3
-0.059665751 -4.4979024 -2.0027714 4
