# .PCD v0.7 - Point Cloud Data file format
VERSION 0.7
FIELDS x y z scale
SIZE 4 4 4 4
TYPE F F F F
COUNT 1 1 1 1
WIDTH 1166
HEIGHT 1
VIEWPOINT 0 0 0 1 0 0 0
POINTS 1166
DATA ascii
-3.8615489 3.8013611 -1.0209287 0.014142135
-3.447397 3.4922118 -1.9161772 0.0099999998
-3.2815223 3.4423263 -1.6069874 0.0099999998
-3.0599542 3.2471447 -1.9865019 0.014142135
-7.5796804 8.5793285 1.3387531 0.014142135
-3.2316041 3.6578047 -1.1564854 0.0099999998
-3.6971672 4.2336645 -0.78994656 0.0099999998
-6.8846307 7.8836617 -0.48810118 0.014142135
-6.8600383 7.8971329 -0.48782167 0.014142135
-3.3201551 3.8220932 -1.7107052 0.014142135
-3.5887706 4.1811786 -0.90528101 0.0099999998
-3.0505037 3.6821868 -1.9972618 0.014142135
-7.175909 8.7143669 1.8546588 0.014142135
-3.0135937 3.7029426 -1.9941784 0.014142135
-3.5736158 4.5494161 -0.81304938 0.014142135
-3.5779634 4.5812316 -0.81694621 0.014142135
-2.6829922 3.4776549 -1.9555898 0.0099999998
-3.1215327 4.0695305 -2.0027471 0.0099999998
-3.3371539 4.43016 -1.3141879 0.0099999998
-3.330601 4.4472513 -1.3164935 0.0099999998
-6.5667753 8.9330454 0.25740772 0.014142135
-6.5410075 8.9469776 0.25731489 0.014142135
-3.2936192 4.5616798 -1.7556738 0.014142135
-3.2653849 4.5795884 -1.7550781 0.014142135
-4.0071988 5.7228746 -1.1478133 0.0099999998
-3.7314236 5.3290267 -1.2257069 0.0099999998
-3.9913292 5.7363577 -1.1481376 0.0099999998
-3.434572 4.9361835 -1.4248564 0.0099999998
-3.7088616 5.3303943 -1.2234851 0.0099999998
-5.4185572 7.9373531 -0.67203391 0.014142135
-6.524137 9.5568571 -0.53962249 0.014142135
-5.4058728 7.9604726 -0.67287099 0.014142135
-6.4985218 9.5694637 -0.53943616 0.014142135
-3.2682037 4.9078856 -1.9924082 0.0099999998
-3.2599006 4.9270406 -1.9962494 0.0099999998
-5.4104161 8.1773472 1.1466398 0.014142135
-3.5333529 5.5441165 -1.2386676 0.014142135
-3.5094447 5.540678 -1.2357051 0.0099999998
-1.656685 2.7935054 -1.92611 0.014142135
-4.0290761 6.7938361 0.55233175 0.014142135
-1.6366512 2.7773719 -1.9118274 0.014142135
-4.0050249 6.7964659 0.55163419 0.0099999998
-3.8384223 6.7321973 0.36139426 0.014142135
-3.8221753 6.7529154 0.3618601 0.0099999998
-3.5500596 6.2721491 -1.8867233 0.0099999998
-3.8488562 6.8895364 0.73626155 0.014142135
-3.5172546 6.3374677 -1.5406258 0.014142135
-3.5108788 6.3678226 -1.5456157 0.014142135
-4.1314297 7.6504879 -1.0167834 0.014142135
-3.6466808 6.752841 1.0785916 0.014142135
-4.1124678 7.669714 -1.0177125 0.014142135
-2.7568414 5.1414833 -1.9712805 0.0099999998
-3.0241718 5.6400523 -1.9969524 0.0099999998
-3.6313095 6.7723579 1.0799834 0.0099999998
-2.9737451 5.6689577 -1.9975481 0.0099999998
-3.2248952 6.1477342 -1.990653 0.0099999998
-3.2112694 6.1635356 -1.9928583 0.0099999998
-3.8179977 7.5387268 -0.9882102 0.014142135
-3.8058577 7.5671058 -0.99053323 0.014142135
-3.3639259 6.7854972 1.0643959 0.0099999998
-3.3420274 6.7918954 1.0638393 0.014142135
-2.739675 5.6926227 -1.9713353 0.0099999998
-3.6292522 8.2637415 -0.20954709 0.014142135
-2.778384 6.3263302 -1.9812814 0.0099999998
-3.0798411 7.0127425 1.4430755 0.014142135
-2.7626708 6.3415971 -1.9834865 0.0099999998
-3.510756 8.1206503 -1.2433726 0.014142135
-3.4849398 8.1231441 -1.2422593 0.014142135
-2.990772 7.0287561 -1.9996734 0.0099999998
-2.968401 7.0340333 -1.9986603 0.014142135
-3.6659126 8.9029827 -0.89826506 0.014142135
-3.6341558 8.896349 0 0.014142135
-3.6130011 8.9200678 0 0.014142135
-3.1023219 7.8515768 -2.0003324 0.014142135
-3.0761704 7.8534989 -1.9984878 0.014142135
-3.2870982 8.4615002 0.21075405 0.014142135
-3.2619796 8.4712152 0.21075405 0.014142135
-2.7506859 7.2071099 1.0841585 0.014142135
-3.195549 8.3727016 -1.9048871 0.014142135
-3.7431853 9.8956013 -1.2372373 0.014142135
-3.4313612 9.1435146 -1.8400416 0.014142135
-3.5995791 9.6841507 -1.6974019 0.014142135
-3.4046705 9.1597767 -1.8411525 0.014142135
-1.6279156 4.4174042 -1.9664279 0.0099999998
-1.6211325 4.4395494 -1.9741364 0.0099999998
-3.3570952 9.365695 0.46397096 0.014142135
-3.3352385 9.3819828 0.46434364 0.014142135
-2.4424767 7.7844353 1.3404126 0.014142135
-2.423275 7.8090339 1.3433306 0.014142135
-2.0899894 7.8492436 0.75781244 0.0099999998
-2.6205728 9.9536247 0.4799957 0.014142135
-2.0675566 7.8531237 0.75762665 0.0099999998
-1.9642528 7.6336617 1.2950188 0.0099999998
-1.940259 7.6397953 1.2950188 0.0099999998
-2.499342 10.091813 0.48484036 0.014142135
-1.8754683 7.8541584 0.94430518 0.0099999998
-1.3947378 6.1538634 -1.9689522 0.0099999998
-2.4416876 11.566608 -1.9422039 0.014142135
-2.4073634 11.563722 -1.9405826 0.014142135
-1.573468 7.5581222 1.4545549 0.014142135
-1.9272702 9.3889198 1.1208543 0.014142135
-1.7265089 8.9487896 1.4973451 0.014142135
-1.7094334 8.9781847 1.5015603 0.014142135
-1.7198967 9.655427 0.91498566 0.014142135
-1.6884909 9.6447954 0.91349936 0.014142135
-0.76107645 11.996727 -1.9749522 0.014142135
-0.15084884 10.539468 -1.9859415 0.014142135
0.0036806206 10.544477 -1.9866821 0.014142135
1.1214437 5.0047388 -2.0027471 0.0099999998
2.8665302 9.0364447 -2.0150802 0.014142135
2.06938 6.0962005 -2.0088675 0.0099999998
2.1645668 5.0796747 -2.0097103 0.0099999998
1.5343149 3.2341728 -2.0112791 0.0099999998
3.3674552 6.9380827 -2.0189207 0.0099999998
4.2716107 8.6164312 -2.044188 0.014142135
3.9198017 7.6764817 -2.0422943 0.0099999998
3.9412253 7.6655045 -2.0422943 0.014142135
5.019146 9.6293736 -2.0459306 0.014142135
5.090055 9.5609198 -2.0407465 0.014142135
3.3498724 6.1594391 -2.010499 0.0099999998
4.2776241 7.496438 -2.0450609 0.014142135
3.8842566 6.7631211 -2.0417132 0.0099999998
3.9052768 6.7532401 -2.0422196 0.0099999998
2.7833831 4.7861762 -2.0151827 0.0099999998
3.2887642 5.5433211 -2.0112505 0.0099999998
4.9090734 8.2744064 -2.0450196 0.014142135
1.7847961 2.9493709 -2.0444517 0.014142135
3.3399811 5.51931 -2.0130377 0.0099999998
3.2035081 4.547998 -2.0247591 0.0099999998
3.2093775 4.5277424 -2.0199709 0.0099999998
5.295929 6.8620272 -2.053822 0.014142135
3.4095848 4.3908629 -2.0233912 0.0099999998
2.3761859 2.9702129 -2.0224836 0.014142135
7.9322252 9.8621693 -2.0793579 0.014142135
3.5508883 4.3091044 -2.0322838 0.0099999998
6.2193956 7.4198747 -2.0579102 0.014142135
5.729888 6.5221953 -2.05705 0.014142135
6.4688182 7.2349811 -2.0629001 0.014142135
6.5955143 7.1250048 -2.0637317 0.014142135
8.7573566 9.1864967 -2.0851941 0.014142135
8.7827454 9.1649609 -2.0855184 0.014142135
6.0293617 6.2545061 -2.0584333 0.0099999998
6.1051083 6.1887941 -2.0598166 0.0099999998
3.9469163 3.9787352 -2.039808 0.0099999998
7.2665396 6.5244741 -2.0757904 0.014142135
4.1978254 3.7243874 -2.0425441 0.014142135
4.216383 3.6976674 -2.0411763 0.0099999998
7.32763 6.426157 -2.0716324 0.014142135
3.2932107 2.75453 -2.0321982 0.014142135
7.6589961 6.0400343 -2.0732956 0.014142135
7.8390794 5.8601165 -2.0803645 0.014142135
5.3767138 3.7816226 -2.0511656 0.0099999998
5.4425364 3.6862607 -2.0511656 0.0099999998
6.1585455 3.7444565 -2.0667291 0.0099999998
8.4639874 5.0495577 -2.0949183 0.014142135
4.8994498 2.7325995 -2.0418603 0.0099999998
3.0059783 1.6307563 -2.0281286 0.0099999998
3.1971433 1.6636201 -2.0249946 0.014142135
8.7586269 4.5575147 -2.0986609 0.014142135
8.9476004 4.2066069 -2.1015716 0.014142135
9.2261171 3.5489674 -2.1011558 0.014142135
3.2235796 1.2071717 -2.0413911 0.0099999998
9.2665005 3.4701352 -2.1032348 0.014142135
6.2590475 2.1003256 -2.060102 0.0099999998
1.8723494 0.62248486 -1.1701527 0.014142135
6.2594538 2.0810299 -2.0583146 0.0099999998
9.3896179 3.1216903 -2.1032348 0.014142135
9.5289679 2.7449918 -2.1078088 0.014142135
1.9452195 0.52996397 -1.1956573 0.014142135
9.5783596 2.5521882 -2.1069772 0.014142135
5.473783 1.3901641 -2.055541 0.014142135
6.4444675 1.4771644 -2.0630805 0.0099999998
9.7391806 1.9973956 -2.1132147 0.014142135
5.5226536 1.1165701 -2.0507529 0.014142135
9.7562265 1.972514 -2.1157095 0.014142135
5.5449166 1.0717992 -2.055541 0.014142135
6.5634933 1.0912869 -2.0761871 0.0099999998
1.9193653 0.28513888 -1.1507691 0.0099999998
6.0382214 0.86044359 -2.0609131 0.0099999998
9.9042187 1.2670053 -2.1223626 0.014142135
5.5986109 0.66660464 -2.0521209 0.0099999998
7.1640134 0.79091698 -2.0667291 0.0099999998
6.6040392 0.71043193 -2.0726125 0.0099999998
6.6023202 0.69043833 -2.0714211 0.0099999998
9.9608278 0.7209934 -2.1227784 0.014142135
5.6296358 0.34235072 -2.0528049 0.0099999998
6.0960975 -0.12237296 -2.0602729 0.0099999998
11.479056 -1.030537 -2.171464 0.014142135
11.474177 -1.0624075 -2.1710937 0.014142135
6.086874 -0.59896845 -2.0666752 0.0099999998
7.2123408 -0.7733233 -2.0799596 0.0099999998
7.1731572 -1.1284176 -2.0821648 0.0099999998
4.8518834 -0.80496418 -2.0543044 0.0099999998
7.8898377 -1.3826737 -2.0969222 0.014142135
7.8995256 -1.4056975 -2.1004674 0.0099999998
6.5065513 -1.4710885 -2.0815489 0.0099999998
11.324 -2.8717222 -2.2010882 0.014142135
11.319237 -2.906286 -2.2018287 0.014142135
5.4770951 -1.4225941 -2.0596452 0.014142135
1.8796051 -0.60021996 -1.1701527 0.0099999998
10.868958 -4.1417589 -2.1914604 0.014142135
6.2112122 -2.427897 -2.0809531 0.0099999998
5.206121 -2.2464197 -2.0637496 0.0099999998
6.0928822 -2.6923637 -2.0785701 0.0099999998
6.0883551 -2.7119837 -2.0797615 0.0099999998
9.210331 -4.1026301 -2.1431539 0.014142135
3.2515099 -1.5627499 -2.0269539 0.014142135
5.8730402 -3.1188071 -2.0749958 0.0099999998
8.8578491 -4.7714553 -2.1385798 0.014142135
4.967639 -2.714071 -2.0603292 0.0099999998
5.8047976 -3.2362187 -2.0738041 0.0099999998
3.1571789 -1.7847912 -2.0377305 0.0099999998
2.9232075 -1.8110529 -2.0393505 0.0099999998
3.1978173 -2.0727217 -2.0262394 0.014142135
4.7368188 -3.089072 -2.0582771 0.0099999998
5.4880037 -3.7619367 -2.0761871 0.0099999998
11.104053 -8.9119444 -2.0010309 0.0099999998
18.978922 -15.232194 1.1348655 0.014142135
14.915893 -12.005548 -1.3389057 0.02828427
31.216471 -25.125608 3.7385292 0.02828427
3.1403606 -2.543014 -2.029705 0.02828427
13.085643 -10.660985 -1.5747043 0.02
4.3060913 -3.657002 -2.0562251 0.02
11.436514 -10.657261 -2.1969869 0.02
3.1117554 -2.9684668 -2.0356209 0.02
8.8435373 -9.7530632 -2.1630123 0.02
9.6811724 -11.933943 -2.1596882 0.02
9.6415901 -11.953223 -2.1582966 0.02
3.2097871 -4.1261234 -2.0413034 0.02828427
8.0100193 -10.356281 -2.1510153 0.02
3.1432753 -4.1606812 -2.036211 0.02828427
8.757719 -12.470223 -2.1415958 0.02
8.7171926 -12.48651 -2.140204 0.02
3.1821334 -4.5904469 -2.0329678 0.02
7.3022175 -10.728766 -2.1322091 0.02
2.3487158 -3.5593102 -2.0185077 0.02828427
3.174649 -5.6664233 -2.0267398 0.02
6.1987062 -11.219678 -2.1059456 0.02
7.4519463 -16.382105 -2.1046507 0.02828427
7.4163823 -16.433111 -2.1083674 0.02828427
4.7348313 -11.730905 -2.0783851 0.02
5.8385668 -16.975676 -2.099308 0.02828427
5.7819233 -16.955181 -2.0948942 0.02828427
3.3437548 -12.057191 -2.0556881 0.02
0.57309681 -3.5423222 -2.0161774 0.02
0.49810025 -3.5307536 -2.0034416 0.02828427
1.6004735 -11.85293 -1.3986868 0.02
1.5810366 -12.24021 -1.4432887 0.02
0.46572706 -11.959929 -0.55816269 0.02
0.048615113 -12.110331 -0.8468436 0.02
-0.36107418 -11.750916 -1.6522632 0.02828427
-0.42824414 -11.734788 -1.6503148 0.02
-0.80372399 -11.69918 -1.6480881 0.02828427
-0.2554377 -3.5722868 -2.0122588 0.02828427
-0.91956013 -11.869495 -0.55518132 0.02
-0.31789857 -3.5690215 -2.0132384 0.02
-1.1213032 -11.840097 -0.55462229 0.02
-2.2679367 -21.908993 1.0271647 0.02828427
-2.3278432 -21.890654 1.0266056 0.02828427
-2.6121995 -20.590986 2.9170685 0.02828427
-1.8394192 -13.84109 -1.9623408 0.02
-1.8850137 -13.868934 -1.9670727 0.02
-3.0561121 -19.515924 1.3813176 0.02828427
-3.1433351 -20.07292 2.3759789 0.02828427
-3.3714705 -20.770147 0 0.02828427
-1.2856256 -7.9201741 -1.9011918 0.02
-2.9292932 -17.392859 2.0626042 0.02828427
-1.2966005 -7.1917968 -1.9130614 0.02
-1.3133966 -7.1631784 -1.9064769 0.02
-4.1721649 -21.665745 4.1570354 0.02828427
-2.6670084 -13.631636 0.97128916 0.02
-3.4033988 -17.156981 -0.4060961 0.02828427
-2.702688 -13.624606 0.97128916 0.02
-3.8494296 -18.017347 -0.8591848 0.02828427
-3.3679743 -15.763885 -0.37425089 0.02828427
-3.909642 -18.037088 -0.86067551 0.02828427
-3.4168489 -15.763594 -0.37448299 0.02
-3.1355743 -13.891029 0.66409338 0.02828427
-3.1700902 -13.852453 0.66269588 0.02828427
-3.3406391 -14.412511 2.0792463 0.02
-3.3777063 -14.389629 2.0772979 0.02828427
-3.2076156 -13.309505 0.95733786 0.02828427
-2.4217968 -9.9270782 -1.9252117 0.02
-1.0606195 -4.0893316 -1.9996831 0.02
-3.276412 -12.185194 -1.7733438 0.02
-3.3120322 -12.173508 -1.7730654 0.02
-3.6611736 -13.456792 0.97519547 0.02
-3.4314892 -12.483472 0.30057982 0.02
-4.1463022 -15.083902 1.8293736 0.02828427
-4.1809282 -15.03517 1.8249599 0.02828427
-2.4554703 -8.8301964 -1.9481328 0.02828427
-2.1359494 -7.2713919 -1.9839718 0.02
-2.3415103 -7.9711809 -1.9685152 0.02
-3.7505641 -12.629307 0.30587187 0.02
-4.3698897 -14.714767 2.892076 0.02828427
-4.001647 -13.338184 1.2991867 0.02828427
-4.423389 -14.743923 2.9002225 0.02828427
-4.4587893 -14.703282 -1.0743892 0.02828427
-4.0900164 -12.948234 0.94952512 0.02
-5.4193792 -16.649466 2.8766668 0.02828427
-5.4619741 -16.61269 2.8730998 0.02828427
-4.5496249 -13.708622 2.7213657 0.02828427
-3.4614029 -10.321093 -1.7885137 0.02
-3.6134734 -10.774531 -1.5971507 0.02828427
-2.6800234 -7.9912024 -1.9971046 0.02
-3.4965384 -10.330081 -1.7917562 0.02
-5.1320233 -15.161914 -1.1193124 0.02828427
-4.1527419 -12.268751 -0.30071908 0.02
-4.2361379 -12.515133 1.232676 0.02828427
-5.1886024 -15.180602 -1.1218237 0.02828427
-4.1878333 -12.252591 -0.30062625 0.02
-1.1683334 -3.387325 -2.0132384 0.02
-4.2620082 -12.238821 1.5155344 0.02828427
-4.2401023 -12.067304 0.29695892 0.02828427
-4.3301344 -12.100253 1.8061887 0.02
-1.2131325 -3.3585658 -2.0063808 0.02
-4.5452728 -12.367008 0.92134351 0.02828427
-2.4092293 -6.4369278 -1.9708073 0.02828427
-2.8383527 -7.5154505 -1.9034975 0.02828427
-3.6340528 -9.2968836 -1.4028651 0.02828427
-3.3460462 -8.4900885 -1.4992906 0.02828427
-4.9361706 -12.410357 0 0.02828427
-4.9826541 -12.419787 0 0.02
-5.055408 -12.506292 -1.2585 0.02
-3.608999 -8.7778215 -0.88544601 0.02828427
-4.936161 -11.899323 0.29909432 0.02
-5.1474576 -12.408683 1.8880224 0.02
-3.668704 -8.7746229 -0.88730383 0.02
-5.0095301 -11.888151 0.29951212 0.02828427
-3.0054817 -7.1323299 -1.8338686 0.02828427
-5.5980802 -12.967435 -0.32792214 0.02
-1.5690875 -3.6052125 -1.9749452 0.02828427
-1.7849239 -4.1011291 -1.9913827 0.02828427
-5.4916086 -12.61779 -0.64173335 0.02
-2.7635257 -6.3496122 -1.9856917 0.02828427
-3.9565444 -9.0175371 0.22862634 0.02828427
-1.9401408 -4.3885121 -2.0041995 0.02
-5.7123384 -12.921056 2.6617467 0.02828427
-6.2744775 -14.086093 -1.0782956 0.02
-6.3056202 -14.050313 -1.0769005 0.02
-1.9457301 -4.335516 -1.9849283 0.02
-3.5991013 -7.9563122 -1.0211971 0.02
-3.3871028 -7.4323192 -1.1478997 0.02828427
-5.4345927 -11.925125 1.2226437 0.02828427
-5.9910612 -13.03749 -0.33312133 0.02828427
-4.1292906 -8.9859848 0.22960119 0.02828427
-2.4494164 -5.3303146 -1.9821644 0.02828427
-3.384383 -7.09232 -1.6703627 0.02828427
-2.2217503 -4.6226478 -2.0027471 0.02
-4.0099983 -8.2840099 -0.64357322 0.02
-4.0249395 -8.2523499 -0.64203858 0.02
-3.214936 -6.5451427 -1.7278113 0.02828427
-3.3100801 -6.738842 -1.4145621 0.02828427
-3.2902467 -6.6456261 -1.3971578 0.02828427
-3.8476901 -7.6105285 -0.99726993 0.02
-4.2512355 -8.2862339 1.5300936 0.02
-4.2609315 -8.2412815 1.5242572 0.02
-6.1566987 -11.826907 0.932365 0.02
-3.3469706 -6.4294701 -1.365682 0.02
-3.4486501 -6.5770774 -1.7596285 0.02828427
-4.2771177 -7.9901838 1.2737123 0.02
-4.2778049 -7.938108 1.2673104 0.02
-3.5145743 -6.4757361 -1.7457949 0.02828427
-3.3489785 -6.1271849 -1.827969 0.02
-4.4195409 -8.0324697 0.42754275 0.02
-4.3042016 -7.7172675 -0.61790287 0.02828427
-3.6621256 -6.5204959 -1.0510354 0.02828427
-4.3925424 -7.7669573 1.6811812 0.02
-4.4019513 -7.7299781 1.6759968 0.02
-7.3715124 -12.866179 2.0839782 0.02828427
-7.272048 -12.605721 2.3909535 0.02828427
-3.7575667 -6.2958808 -1.0304377 0.02828427
-4.5693831 -7.656096 0 0.02
-3.0537605 -5.1166387 -1.8593342 0.02
-3.6285262 -5.9655337 -1.1471648 0.02
-4.4092693 -7.249126 0.39567965 0.02828427
-3.6214781 -5.9120326 -1.1390588 0.02
-5.0627871 -8.2649565 -0.67775393 0.02
-5.3129539 -8.6733532 -0.23614666 0.02
-4.4601979 -7.2812357 0.39819518 0.02828427
-3.0985341 -5.058331 -1.8509938 0.02
-3.4661839 -5.6585159 -1.4104731 0.02828427
-5.1229286 -8.2079611 -0.45120713 0.02828427
-3.99845 -6.3666682 -1.0566022 0.02
-8.2236767 -13.094429 -1.8082342 0.02828427
-8.2435389 -13.03495 -1.8035882 0.02828427
-3.3047123 -5.2255182 -1.4649737 0.02828427
-3.61903 -5.7225275 -1.2756981 0.02828427
-4.0543318 -6.366477 -1.0607774 0.02828427
-5.9597354 -9.308239 1.2925251 0.02828427
-5.965806 -9.2571201 1.287879 0.02828427
-3.2955146 -5.1136384 -1.4414567 0.02
-7.8138065 -11.747374 -1.3162788 0.02828427
-8.4122267 -12.561296 0.35099366 0.02828427
-8.4730082 -12.580688 0.35215423 0.02828427
-3.2336409 -4.7688928 -1.5083656 0.02
-8.0278835 -11.764025 -0.330661 0.02828427
-9.5279703 -13.962245 0.39244816 0.02828427
-4.2399306 -6.1737552 -0.69873321 0.02
-4.1134582 -5.9539008 1.3634601 0.02828427
-6.9481115 -9.9340019 -0.28145412 0.02
-3.2340446 -4.623847 -1.6179914 0.02
-9.771162 -13.882349 1.9852479 0.02828427
-9.8202248 -13.869601 1.9873385 0.02
-7.2223959 -10.136653 -0.58042955 0.02
-6.1851592 -8.6329727 0 0.02
-4.2714992 -5.9225807 -1.0262625 0.02828427
-6.2204394 -8.6248541 0 0.02
-3.3532906 -4.622191 -1.7818868 0.02
-3.6125116 -4.9503613 -1.4520624 0.02
-2.481776 -3.3785295 -1.9842812 0.02828427
-3.4077859 -4.6391397 -1.7961848 0.02
-3.6107645 -4.9154615 -1.4451456 0.02
-3.9224956 -5.2452159 -1.3921767 0.02828427
-3.9211164 -5.115644 -1.5272248 0.02
-4.0783792 -5.3208151 1.2631077 0.02
-3.6028838 -4.648159 -1.6863495 0.02828427
-3.9535069 -5.1005058 -1.5290692 0.02
-7.7032967 -9.87397 -0.87572277 0.02
-7.7510352 -9.8746119 -0.87781549 0.02
-2.7470043 -3.4996099 -1.9808075 0.02
-3.5971479 -4.5012355 -1.7979721 0.02
-9.6800833 -12.048208 -0.72073889 0.02
-9.3809061 -11.465315 0.34393758 0.02
-9.4052649 -11.429809 0.34365904 0.02
-4.1629252 -5.0590215 0.92076927 0.02828427
-3.4966762 -4.174571 -1.8400323 0.02828427
-4.1882558 -5.0002255 1.0716166 0.02828427
-4.7168427 -5.5638785 -1.909516 0.02
-4.6974964 -5.3810506 0.66640681 0.02828427
-4.5690193 -5.0548606 -1.448313 0.02828427
-2.6545014 -2.902977 -1.9758431 0.02828427
-3.5877945 -3.9236312 -1.7964965 0.02
-3.1065423 -3.3383605 -1.9047604 0.02
-15.867389 -17.051455 4.3884754 0.02828427
-5.5981274 -5.9822912 -0.38207731 0.02828427
-7.6794448 -8.2064362 1.0485642 0.02
-15.922998 -17.015692 4.390697 0.02828427
-7.7215066 -8.2024612 1.0509794 0.02
-2.9071574 -3.0528171 -1.9954047 0.02828427
-6.6769104 -7.0114493 1.1322371 0.02828427
-3.8790095 -4.0014296 -1.7389929 0.02
-5.7670288 -5.779119 -0.95475876 0.02
-3.3650901 -3.3149574 -1.3544819 0.02828427
-3.3815546 -3.2000139 -1.8179677 0.02828427
-4.767859 -4.4835873 1.2331131 0.02
-3.2789981 -3.0130813 -1.8600513 0.02828427
-6.2068615 -5.7035036 0.58944225 0.02
-3.4730239 -3.1546731 -1.2282696 0.02
-3.2503057 -2.9358461 -1.7103009 0.02
-6.804523 -6.0392151 -1.0639405 0.02828427
-3.3015828 -2.9302523 -1.8438635 0.02828427
-10.203285 -9.0557165 -0.31673452 0.02828427
-5.3943734 -4.7608037 0.67123717 0.02
-3.7534411 -3.3125992 -1.064092 0.02828427
-4.1738944 -3.6604066 -0.91209012 0.02
-6.8372531 -5.996109 -1.0634758 0.02828427
-5.4143491 -4.7199111 0.67012244 0.02
-5.1148429 -4.4321785 0 0.02828427
-5.7058048 -4.9442668 0.17528795 0.02828427
-10.821797 -9.275404 -1.6667626 0.02
-10.828101 -9.2252178 -1.6635103 0.02828427
-3.6670256 -3.086828 -1.135735 0.02828427
-5.9009104 -4.8522401 0.35627007 0.02828427
-10.08895 -8.2488928 -1.8315182 0.02
-3.5799053 -2.9269898 -1.210542 0.02
-10.128751 -8.2314119 -1.8343016 0.02
-3.5794351 -2.8748558 -1.316444 0.02
-4.253861 -3.416527 -1.0279645 0.02828427
-4.9097161 -3.9432831 1.1864548 0.02828427
-3.7362332 -2.9644897 -1.0137775 0.02
-3.4191186 -2.6799672 -1.8145713 0.02
-5.4993472 -4.2857513 -0.1618721 0.02
-7.1591778 -5.4144454 -0.62766874 0.02828427
-5.5752039 -4.216495 -0.16228989 0.02
-3.6833496 -2.7856965 -1.0942343 0.02
-7.7892275 -5.8546987 0.68138123 0.02828427
-6.1722426 -4.6393075 0.90295553 0.02
-3.6171455 -2.6706891 -1.5192752 0.02828427
-3.6323569 -2.66433 -1.759042 0.02
-3.8860731 -2.8504305 0.79179668 0.02828427
-10.254319 -7.3902068 -1.4781339 0.02828427
-10.239388 -7.336091 -1.4730232 0.02828427
-8.1544151 -5.8422956 0.23289713 0.02828427
-3.6555026 -2.6016736 -1.1745801 0.02828427
-3.9854524 -2.8197694 0.91983569 0.02828427
-3.3600183 -2.3335347 -1.8213668 0.02
-6.9775648 -4.8459229 0.59404618 0.02828427
-4.0362816 -2.8031998 -1.0445484 0.02828427
-4.3589439 -3.0092812 -0.99796987 0.02828427
-9.4195223 -6.4617615 -1.8767072 0.02828427
-7.9290609 -5.4393096 -0.22324143 0.02828427
-3.6003339 -2.4698172 -1.251945 0.02
-3.3317201 -2.2422006 -1.7880144 0.02828427
-3.7155952 -2.5005431 -1.7488573 0.02828427
-3.6556692 -2.4602137 -1.2635217 0.02828427
-5.7640767 -3.8791423 0.64819998 0.02
-3.992764 -2.6870737 -1.1403462 0.02828427
-4.1807485 -2.8135846 0.94946003 0.02
-7.5945516 -5.0496335 0.42530671 0.02
-5.8055496 -3.8601222 0.65042937 0.02
-9.1438961 -6.0407443 -1.8005106 0.02
-3.8645511 -2.537571 -1.5621709 0.02828427
-3.7014015 -2.3991287 -1.6054425 0.02
-9.575037 -5.9761801 -1.0530231 0.02828427
-3.225019 -2.0128689 -1.7994581 0.02
-9.6360798 -5.9722953 -1.0576677 0.02828427
-4.3748813 -2.7114849 -1.0940313 0.02
-3.906028 -2.3432696 -1.5391225 0.02828427
-5.6358829 -3.3596618 0.76729155 0.02
-4.4546847 -2.6555259 -1.1023479 0.02
-4.4839034 -2.6729438 0.98352802 0.02828427
-7.6035237 -4.5020876 0.61790287 0.02828427
-3.8213964 -2.2626696 -1.2734447 0.02
-4.7223449 -2.7961261 0.7712974 0.02
-4.0813537 -2.4002647 -1.4774587 0.02
-4.1896548 -2.4639575 0.91576231 0.02
-10.271822 -5.8827286 -0.8277303 0.02
-9.9032612 -5.484951 -1.591027 0.02
-9.9395351 -5.4643073 -1.5940888 0.02
-9.3495741 -5.1399727 -1.2476909 0.02828427
-7.9411645 -4.3045249 -0.84271574 0.02828427
-9.5264435 -5.1294637 -2.0385246 0.02
-4.2918935 -2.2945471 0.79957843 0.02828427
-0.86845607 -0.4613778 -0.55253839 0.02
-4.279891 -2.2412782 0.79374212 0.02
-4.5896087 -2.40347 0.9761219 0.02
-3.9101431 -2.0043669 -1.4847025 0.02828427
-4.6069093 -2.3615341 0.97538126 0.02
-4.0835772 -2.064553 -1.1978793 0.02828427
-4.5242844 -2.2873635 -1.2012138 0.02
-4.5068154 -2.2440693 -1.1929138 0.02828427
-4.0727048 -1.9996068 -1.1877493 0.02
-4.4742193 -2.055073 0.69196868 0.02
-4.5185027 -2.0582488 0.69781399 0.02
-8.8420191 -3.9941833 -0.67845148 0.02828427
-3.169009 -1.4222151 -1.8469013 0.02828427
-7.631743 -3.3437488 -1.1710026 0.02828427
-4.8609643 -2.1297684 -1.2574704 0.02
-4.0677452 -1.7409176 -1.7277603 0.02
-3.1523428 -1.3277131 -1.8187329 0.02828427
-3.9306803 -1.6555356 -1.4411666 0.02828427
-3.2759206 -1.356931 -1.7810415 0.02828427
-4.1274796 -1.7096583 -1.3940539 0.02
-4.1646209 -1.7097342 -1.4047773 0.02
-3.955621 -1.5981741 -1.6659248 0.02828427
-4.1757946 -1.68713 0.63295931 0.02
-4.7395787 -1.9149133 -1.0865467 0.02
-4.4026909 -1.7788019 0.89465499 0.02
-4.371459 -1.7511148 0.88724893 0.02
-3.6264458 -1.4284946 -1.6280265 0.02828427
-8.6804276 -3.3634307 -0.65096742 0.02828427
-4.2254028 -1.6084559 0.52871799 0.02828427
-1.4389912 -0.54317564 -0.81781954 0.02
-4.1902175 -1.5666583 0.52314276 0.02
-4.5951152 -1.7180434 0.68946362 0.02
-4.1151247 -1.512441 -1.1477355 0.02
-4.571178 -1.6800551 0.68445337 0.02
-4.3401575 -1.5951477 0.75969684 0.02
-7.7305226 -2.8167369 -1.351761 0.02828427
-4.1647792 -1.5175025 -1.1603981 0.02828427
-7.7796841 -2.8085303 -1.3588942 0.02828427
-3.9420581 -1.4091327 0.78874797 0.02828427
-8.692482 -3.0798779 -0.43005824 0.02828427
-3.7952449 -1.3447127 0.56587785 0.02
-4.3213091 -1.5311052 0.75321198 0.02
-3.7694852 -1.310461 0.56086767 0.02
-4.2046852 -1.4346675 0.41448388 0.02828427
-8.1901579 -2.7165685 -0.6033935 0.02828427
-4.0052285 -1.328482 -1.1046828 0.02
-4.9614677 -1.6456541 -1.2385645 0.02
-4.0389237 -1.2874324 -1.1097479 0.02
-10.119493 -3.1615615 -1.741823 0.02828427
-3.561166 -1.11259 -1.6611125 0.02828427
-4.1474075 -1.2830437 0.61013496 0.02
-4.1585445 -1.2326074 0.60957819 0.02
-3.6425178 -1.0796552 0.71579802 0.02828427
-3.5505519 -1.0416187 -1.5455461 0.02828427
-3.9204555 -1.1263943 -0.96650457 0.02828427
-3.4251192 -0.94150645 -1.6813768 0.02
-3.5370531 -0.9722752 -1.4324043 0.02828427
-3.2463493 -0.89236569 0.63433111 0.02
-3.647455 -0.99099106 -1.0838062 0.02
-4.0579123 -1.0774531 -1.0991113 0.02828427
-7.8013124 -1.9248517 -0.37471715 0.02828427
-3.6718183 -0.9059636 -1.277907 0.02828427
-3.5963697 -0.87670058 -1.6480969 0.02828427
-3.5970182 -0.87685865 -1.2510172 0.02
-3.5865712 -0.87431192 -0.96640754 0.02828427
-3.667104 -0.88174772 0.35187468 0.02828427
-3.7136991 -0.8601073 0 0.02828427
-3.6370809 -0.80831993 0.34760165 0.02828427
-1.6925703 -0.36656502 -0.86987358 0.02
-3.7478681 -0.78843361 -0.44787711 0.02828427
-3.852994 -0.81054884 -1.1290107 0.02828427
-3.7157588 -0.74787909 -0.99223918 0.02
-3.7130816 -0.73655707 -0.8046183 0.02828427
-3.6284144 -0.70857871 0.6965422 0.02828427
-3.7571974 -0.72148281 0.17841454 0.02828427
-3.7099688 -0.66886622 -0.8012917 0.02828427
-3.6924596 -0.65440351 0 0.02828427
-3.8110051 -0.64116329 -0.27023658 0.02828427
-4.3030863 -0.71159989 0.7165727 0.02828427
-3.8138747 -0.59655523 -0.63421553 0.02828427
-3.7802479 -0.58048612 -0.81293476 0.02828427
-12.059771 -1.7786801 -0.85242409 0.02828427
-13.836247 -2.0406904 -2.6350846 0.02828427
-3.8404975 -0.55547816 -1.3111992 0.02
-13.894412 -2.0096464 -2.645083 0.02828427
-12.065566 -1.7107424 -0.85214508 0.02828427
-8.3216314 -1.1059086 -0.98170578 0.02
-4.0586505 -0.46816686 -1.5953593 0.02
-4.4490509 -0.51319963 0.41782796 0.02
-14.085988 -1.579998 -5.1590319 0.02
-4.5020933 -0.50499111 0.42265835 0.02828427
-14.096488 -1.5363481 -5.1610842 0.02
-4.248065 -0.45173851 0.60039282 0.02
-5.0231109 -0.51908869 -1.5757575 0.02
-4.0707102 -0.40846401 -1.5975418 0.02828427
-4.5493722 -0.44446659 -0.21316577 0.02
-4.2941537 -0.41953212 0.50455868 0.02
-4.5027552 -0.38523069 -0.52848572 0.02
-4.5395551 -0.34929994 -0.53243482 0.02
-3.9205365 -0.29065806 -0.64588821 0.02828427
-4.3791652 -0.32465956 -1.370224 0.02
-4.4610171 -0.33072785 -1.1710347 0.02828427
-3.5744507 -0.2443087 -0.50352836 0.02
-4.3181052 -0.29513642 -1.3505642 0.02828427
-3.9146435 -0.26756039 -1.0271878 0.02
-3.6147273 -0.23565559 -0.50909525 0.02
-12.441145 -0.81107795 -0.8718164 0.02
-12.459157 -0.77949703 -0.87293255 0.02
-4.221086 -0.2522569 -1.5390905 0.02828427
-4.1024981 -0.22074717 -1.1780741 0.02828427
-4.1266694 -0.18666942 -1.5035206 0.02
-4.0466189 -0.18304835 -1.1615359 0.02828427
-5.5563855 -0.23482448 -0.78159618 0.02828427
-3.2969475 -0.082303241 0.62137049 0.02828427
-4.6907735 -0.10235318 0.65940225 0.02
-4.3596244 -0.069248185 -1.5869735 0.02828427
-3.9886429 -0.018796595 -1.5575305 0.02
-3.9661734 -0.018690707 -0.74727392 0.02
-3.8128784 -0.0059903837 -0.62643373 0.02828427
-3.7286956 0.0058569992 -1.3571359 0.02
-3.9013059 0.09534511 0.27288732 0.02828427
-3.9622235 0.10790618 -0.18484305 0.02
-3.4711893 0.12485642 0.57066429 0.02828427
-3.9302747 0.16472711 -0.18344556 0.02828427
-3.8359413 0.17284732 0.44903862 0.02828427
-5.7828102 0.26057312 -1.2304215 0.02
-3.7739248 0.21231678 0.17627171 0.02828427
-3.9248569 0.22080806 -1.2266482 0.02
-3.4541571 0.19432701 0.5683946 0.02828427
-5.1705513 0.32167923 -0.85113281 0.02828427
-1.7427379 0.10842221 -0.87705523 0.02
-3.753886 0.23354322 -1.1736265 0.02
-5.5920181 0.34790027 -1.1909182 0.02828427
-3.6807337 0.25028205 -1.3427711 0.02
-3.692333 0.26207837 0.5202291 0.02828427
-3.7909315 0.27971882 -1.1861373 0.02
-3.3495915 0.25656012 -1.1351348 0.02828427
-9.1327553 0.72678381 -0.64064342 0.02828427
-3.5907669 0.32804951 -1.2183652 0.02828427
-3.7103984 0.33897895 -1.0683705 0.02
-3.6436012 0.34249666 -1.629387 0.02
-3.3881299 0.31848249 -1.4214399 0.02828427
-3.6428652 0.35397667 0.1706817 0.02
-4.0865149 0.39708602 0.77356547 0.02828427
-3.7646875 0.37709311 -1.0849087 0.02828427
-3.5382028 0.3756263 -1.4861909 0.02828427
-1.8163478 0.22398506 -0.91924721 0.02828427
-5.6819329 0.71880198 -0.94094759 0.02828427
-3.4746313 0.47102395 -1.4646072 0.02828427
-3.3668246 0.48576599 -1.2381129 0.02
-3.9521122 0.59346783 0.65658814 0.02
-3.4970794 0.5351283 -1.4777116 0.02828427
-3.5867085 0.5488435 -1.226048 0.02828427
-3.5545657 0.57571381 -1.0325376 0.02
-3.371038 0.556862 -1.2435852 0.02828427
-3.516382 0.5808714 -1.20428 0.02828427
-3.6855168 0.60881078 -1.0711268 0.02828427
-3.5229361 0.590801 -1.1146474 0.02828427
-5.4083791 0.9555887 -0.51239198 0.02828427
-4.1338778 0.75572538 -1.1001244 0.02
-5.2549224 0.96066648 -1.0064869 0.02
-3.2945259 0.62191176 -1.4927235 0.02828427
-8.750371 1.6803035 -0.62306482 0.02
-3.4271884 0.66741848 -1.5545475 0.02828427
-1.6621257 0.32850644 -0.85102189 0.02
-3.2404144 0.66044742 -1.4723867 0.02828427
-3.434916 0.7213462 -1.5626823 0.02828427
-3.4508677 0.72469604 -1.1914754 0.02
-4.0445127 0.84936386 -1.0818902 0.02
-3.6587718 0.77903026 -1.5625048 0.02828427
-3.464334 0.75851351 -1.290784 0.02828427
-3.5696666 0.78157604 -1.1402645 0.02828427
-3.4463184 0.76592386 -1.4746283 0.02828427
-3.7529993 0.84508699 -1.1031008 0.02828427
-1.7747108 0.40515909 -0.86165214 0.02828427
-3.5088069 0.85470611 -1.220286 0.02
-13.631523 3.3608365 -0.98175257 0.02
-3.6375706 0.8968389 -1.4629585 0.02828427
-3.6721525 0.95036638 -1.0876651 0.02
-3.6915734 0.9898439 -1.0959342 0.02
-13.5559 3.7619309 -0.32662234 0.02
-3.7419174 1.0384287 -1.2117546 0.02
-22.966652 6.5119004 -4.497715 0.02828427
-3.6718545 1.0528872 -1.2907116 0.02828427
-3.9828997 1.1805444 -1.7351742 0.02828427
-13.303387 4.0672545 -2.6210134 0.02
-13.29949 4.1067057 -2.6224945 0.02
-22.97369 7.1731052 2.245384 0.02828427
-22.951672 7.2366347 2.2451982 0.02828427
-13.420321 4.2778072 -4.7594995 0.02
-13.327882 4.3304911 -3.6686006 0.02
-13.322721 4.3699808 -1.3081044 0.02828427
-13.334122 4.3737206 -3.6736655 0.02828427
-13.768638 4.8325024 -0.33878478 0.02
-13.772903 4.8745337 -0.33920258 0.02
-12.651998 4.5201073 -0.93948019 0.02828427
-13.00708 4.6905308 -0.64480788 0.02
-12.987207 4.7654963 -1.2906407 0.02828427
-14.474412 5.3628678 -4.8166347 0.02
-3.8948123 1.4554348 -1.7367158 0.02
-14.450438 5.399919 -4.8136559 0.02
-9.7329435 3.6680677 0.24148512 0.02
-13.143741 5.0849295 -2.3154054 0.02
-3.4515815 1.3464097 -1.8609371 0.02
-4.2148628 1.6875306 -1.772864 0.02
-4.6148353 1.84767 -1.8092866 0.02
-23.141705 9.6519251 -4.1194825 0.02828427
-4.5072122 1.8946586 -1.2799329 0.02828427
-3.9187942 1.6885096 -1.3315002 0.02828427
-3.2118096 1.4172467 -1.866619 0.02
-4.3208842 1.9066383 -1.2363737 0.02
-8.8462496 3.9645319 0 0.02828427
-4.247602 1.9187585 -1.6964198 0.02828427
-8.813467 4.0128117 0 0.02828427
-3.5988836 1.6385881 -1.3361683 0.02828427
-8.8112288 4.0415373 -0.90439594 0.02
-3.7518153 1.720884 -1.1835868 0.02
-8.7691784 4.0519261 -0.90123767 0.02
-3.5837719 1.6688565 -1.5437086 0.02
-3.5013947 1.6926399 -1.2135419 0.02
-20.657513 10.061955 -4.3292265 0.02828427
-9.979743 4.8933463 -0.77722663 0.02
-9.9696875 4.9273243 -0.77764517 0.02
-3.7482774 1.8786341 -1.0975918 0.02828427
-9.1615114 4.7956305 0.48223168 0.02828427
-3.3671846 1.773813 -1.694465 0.02
-3.8826919 2.0453792 -1.0398223 0.02828427
-8.2712965 4.5115299 -1.5479268 0.02828427
-7.7763777 4.2715664 -0.62041408 0.02
-3.6288383 2.0073597 -1.6193662 0.02828427
-3.4637229 1.9556912 -1.1405874 0.02828427
-9.7728357 5.6309843 1.0522799 0.02828427
-10.313151 5.9831328 -0.55601984 0.02828427
-3.5166419 2.0401657 -1.6981735 0.02828427
-10.25395 5.9895229 -0.55378383 0.02828427
-3.3703473 1.9686825 -1.318882 0.02
-9.7839556 5.7149906 1.0571103 0.02828427
-8.1791716 4.8063698 -0.66338408 0.02828427
-7.6666188 4.5051761 0.4146857 0.02
-8.1444969 4.8493152 -0.66282606 0.02
-7.3357086 4.3972893 -0.39884734 0.02
-3.4970357 2.1095457 -1.705882 0.02828427
-3.7919335 2.3037195 -0.94308752 0.02828427
-3.3282242 2.0339491 -1.2171162 0.02828427
-3.3647909 2.0838194 -1.2349888 0.02
-7.8667827 4.9367361 0.21562831 0.02
-3.6390409 2.3416073 -0.91980141 0.02
-3.3991432 2.2158725 -1.5844473 0.02828427
-3.6389005 2.3884923 -0.92520714 0.02
-7.2593579 4.82128 -0.40639383 0.02828427
-7.5633059 5.0861626 -0.85033286 0.02
-3.2668183 2.196866 -1.2284355 0.02
-4.0605783 2.749218 -0.92390901 0.02828427
-7.2280455 4.9250922 -0.40788454 0.02
-3.5228815 2.4139733 -0.9077425 0.02
-3.4249816 2.3768797 -1.7413409 0.02828427
-3.2599728 2.2623663 -1.1378311 0.02
-3.0269241 2.1147549 -1.9633301 0.02828427
-9.2056923 6.5445604 -0.26223558 0.02828427
-9.2187557 6.5951152 -0.26316401 0.02828427
-7.0190983 5.1768155 0.20249099 0.02
-3.8721259 2.8558202 -0.90650475 0.02
-2.698216 2.0016799 -1.9924221 0.02
-3.3324449 2.4721844 -1.8473979 0.02828427
-3.872452 2.9276495 -0.91465139 0.02828427
-3.2592392 2.4783828 -1.8229938 0.02
-3.2180088 2.4470305 -1.5786273 0.02
-3.262871 2.4811447 -1.2790742 0.02828427
-3.2773447 2.4921508 -1.0778381 0.02
-3.3814878 2.6012762 -1.6659248 0.02
-3.4216974 2.6646767 -1.8114879 0.02
-6.8014593 5.3291936 0.40294668 0.02
-3.0813799 2.4422715 -1.9749452 0.02
-3.3365932 2.6445508 -1.7783417 0.02
-6.9688268 5.5234237 0.62180924 0.02
-5.0418396 4.0205255 -0.9062953 0.02828427
-6.9258909 5.5229282 -0.61943746 0.02828427
-4.9855285 4.0242505 -0.90045005 0.02828427
-6.4736385 5.3478508 -0.39158031 0.02
-6.7262387 5.5565228 0.40685967 0.02
-3.182235 2.6777933 -1.4053136 0.02
-3.2908132 2.784893 -1.8006961 0.02
-3.2637508 2.7619913 -1.6695621 0.02
-3.4539244 2.9229279 -1.0721006 0.02
-3.4253325 2.93172 -1.6410127 0.02
-3.1999958 2.7388558 -1.4232401 0.02828427
-3.3279626 2.9319293 -1.2717909 0.02
-4.0354581 3.5778122 -1.0161148 0.02828427
-3.1317043 2.7922087 -1.9859926 0.02828427
-3.2825286 2.9266825 -1.8369259 0.02828427
-8.1284838 7.2473068 0.50785255 0.02
-9.4237804 8.452508 0.88520962 0.02
-6.690064 6.0364575 -0.84067208 0.02828427
-3.2896645 2.9849787 -1.8554261 0.02828427
-9.8329725 8.9222507 0.619187 0.02
-3.2325225 2.9331291 -1.1426705 0.02828427
-2.7406504 2.500803 -1.9727197 0.02828427
-15.534202 14.516323 2.4863219 0.02828427
-15.505539 14.575953 2.4886451 0.02828427
-8.7953472 8.3610697 1.4191293 0.02828427
-8.8020515 8.4202423 1.4244723 0.02828427
-4.1192379 3.962646 -0.80330724 0.02828427
-3.2641904 3.1401031 -1.1857233 0.02
-8.2932901 8.1128864 1.082377 0.02
-9.5172853 9.3689442 1.5617625 0.02
-3.3788157 3.3447826 -1.1265126 0.02828427
-9.3491516 9.4179354 -0.3081001 0.02828427
-3.5692594 3.6156585 -0.95723635 0.02828427
-3.3233845 3.4079783 -1.3649563 0.02
-2.8901782 2.9813907 -1.9654567 0.02828427
-7.4520392 7.6872215 -0.4992812 0.02828427
-7.9236994 8.1737671 0 0.02
-7.8842621 8.1729527 0 0.02
-3.944468 4.1857681 -0.80831742 0.02
-13.79749 14.641542 2.827441 0.02828427
-3.3712945 3.5988641 -1.4140197 0.02
-13.777007 14.706984 2.8321726 0.02828427
-3.3689942 3.5964086 -1.0474591 0.02828427
-8.3100462 8.9740324 0.28396088 0.02
-3.3269982 3.5928311 -1.4040968 0.02
-8.2955723 9.0118885 0.28437868 0.02
-3.5832105 3.9145 -0.87188423 0.02828427
-3.2890072 3.593096 -1.1541797 0.02828427
-3.8287611 4.2092285 -0.7996887 0.02
-7.5397043 8.382513 -0.78838772 0.02
-3.3041689 3.6968093 -1.5471615 0.02
-2.7554026 3.099124 -1.9628897 0.02
-7.6118736 8.5614128 1.3396822 0.02828427
-7.8888249 8.929244 0.83317131 0.02
-7.2956581 8.304471 -1.0312864 0.02828427
-7.8520079 8.9377508 0.83191574 0.02
-2.9188116 3.360075 -1.981621 0.02828427
-12.126712 14.128499 -2.177361 0.02828427
-3.4242311 3.9894776 -0.99056381 0.02828427
-12.069158 14.141152 -2.1741087 0.02828427
-3.4424236 4.0334082 -0.99908078 0.02
-7.768539 9.3772097 -1.1360685 0.02828427
-3.3523378 4.0465236 -1.9125767 0.02
-7.0902114 8.7650614 -0.52574056 0.02828427
-3.6439507 4.5289211 -0.81694621 0.02828427
-3.3234 4.1305213 -1.7913746 0.02
-6.9871874 8.6840963 1.3034432 0.02
-7.1837401 8.9828215 -1.0730878 0.02828427
-3.2529433 4.0676036 -0.98130614 0.02828427
-2.6957102 3.4515929 -1.9498955 0.02
-3.3762481 4.3229551 -1.4359356 0.02828427
-3.4077613 4.3900924 -0.91306287 0.02828427
-3.312393 4.2672329 -1.4141561 0.02
-6.4683533 8.4327679 0.99152863 0.02828427
-8.3664837 11.042432 0 0.02828427
-3.3126853 4.3722191 -1.1659689 0.02828427
-8.3055325 11.025814 0 0.02828427
-4.0146194 5.3938794 -0.94498545 0.02828427
-4.0482883 5.4749413 -0.9569543 0.02
-6.780652 9.5096273 0.81670874 0.02
-6.6287255 9.2965565 1.604666 0.02828427
-3.3175228 4.65271 -1.2146202 0.02
-3.6581945 5.1304898 -1.1871953 0.02
-6.7397156 9.5118008 0.81517416 0.02
-3.2867365 4.6385908 -1.2083828 0.02
-3.6668167 5.1749997 -1.1949717 0.02
-6.5641499 9.3156242 1.6016041 0.02828427
-2.6898947 3.8659298 -1.9671987 0.02
-3.6753933 5.2822933 -1.6846286 0.02
-3.7079523 5.3609619 -1.7064083 0.02
-2.6605802 3.8973405 -1.9710531 0.02
-5.6277852 8.2438402 0.69798326 0.02828427
-5.6367683 8.3004789 0.70161062 0.02828427
-5.6145191 8.2677164 1.1687083 0.02828427
-3.2878277 4.9038882 -1.994969 0.02
-3.8364577 5.7221851 -1.6323597 0.02
-2.7848208 4.2090011 -1.9707381 0.02828427
-3.7154751 5.7169595 -1.7849162 0.02828427
-2.9250507 4.531837 -1.9631956 0.02828427
-2.7305956 4.2598791 -1.9758304 0.02828427
-3.751411 5.8524075 -1.6471156 0.02
-1.8650607 2.94454 -1.9583764 0.02
-5.5460672 8.7560778 -0.48334968 0.02
-2.9143457 4.6011415 -1.9823488 0.02828427
-5.5285721 8.7860241 -0.48409501 0.02
-3.6867042 5.858922 -1.6401987 0.02828427
-1.6703879 2.7592244 -1.9128476 0.02828427
-3.0261815 4.9987874 -1.9744816 0.02828427
-3.013551 5.0814557 -1.9962494 0.02828427
-3.2400794 5.4634285 -1.9820586 0.02828427
-4.1827412 7.1435862 0.77230358 0.02
-3.8846459 6.6825323 0.36046261 0.02
-4.068891 7.2358742 -0.97078764 0.02828427
-4.6406775 8.2527046 0 0.02
-4.6049347 8.2429333 0 0.02
-3.844095 6.9263759 0.7390483 0.02
-3.6953104 6.8030829 1.0880554 0.02828427
-3.0074224 5.6490011 -1.9969524 0.02828427
-5.3175235 10.060025 -0.26418531 0.02
-3.2423983 6.1341724 -1.9895506 0.02828427
-5.2896042 10.083764 -0.26437098 0.02
-4.2279682 8.0599289 0.21131109 0.02828427
-3.4338012 6.5459795 1.3927141 0.02828427
-3.535121 6.7851181 1.0752515 0.02828427
-3.1913924 6.1673579 -1.9912044 0.02828427
-3.3707597 6.5587816 1.3893814 0.02
-3.4493427 6.7580462 1.0663444 0.02828427
-3.5092552 6.9291072 0.90829849 0.02828427
-3.4527514 6.9130545 0.90365249 0.02
-3.6945624 7.3972058 -1.5578699 0.02
-3.617276 7.2965388 -1.1445596 0.02
-7.1784072 14.796492 -1.1500052 0.02828427
-4.3716617 9.0110874 0.70035505 0.02
-3.673449 7.5718966 -1.5856426 0.02828427
-3.3067987 6.9235196 0.71582532 0.02828427
-3.2575433 6.9226289 0.71378171 0.02828427
-3.9013245 8.3511829 -0.21400355 0.02828427
-3.4893572 7.6425438 -1.1807446 0.02828427
-3.7303085 8.1702862 -0.20852579 0.02
-4.0645947 9.0356903 0.69282126 0.02828427
-2.7761276 6.2705946 -1.966397 0.02828427
-3.5827949 8.092659 -1.6674799 0.02828427
-3.0495987 7.0002284 1.4386319 0.02
-3.4851294 8.1235857 0.82469463 0.02
-2.9168899 6.9696341 -1.9778938 0.02828427
-1.8382004 4.429059 -1.8725286 0.02
-3.6557176 8.8782234 0.22291648 0.02828427
-3.3993027 8.3214331 0.83862853 0.02828427
-3.5733545 8.8221855 -1.5638146 0.02828427
-3.5300965 8.7153864 -0.87727147 0.02828427
-3.074542 7.6597428 0.96521235 0.02
-3.4406292 8.6415291 -0.65040934 0.02828427
-3.7533019 9.7471571 -1.2214408 0.02
-2.7620959 7.1730404 1.0802617 0.02
-3.2286296 8.535306 0.21186815 0.02828427
-3.6175065 9.639534 -1.6915656 0.02
-3.4486423 9.1895628 0.22788361 0.02828427
-2.5529771 6.8028932 1.3690147 0.02
-3.3172262 9.254467 -1.8522617 0.02828427
-3.0896313 8.6910934 -1.9606074 0.02828427
-3.2692838 9.1964531 -1.8389307 0.02828427
-2.4835091 7.2537336 1.4445567 0.02828427
-3.4296861 10.109317 -1.2483877 0.02
-2.6572595 7.8325176 -1.9597539 0.02828427
-3.0036385 8.8535013 -1.9872202 0.02
-2.4790301 7.3071704 1.4538143 0.02828427
-3.3894131 10.083079 -1.243974 0.02828427
-2.6483965 7.8786478 -1.9694375 0.02828427
-3.4107583 10.349528 0.2529977 0.02
-3.3178573 10.169023 -1.7573864 0.02828427
-3.2670486 10.11497 -1.7463623 0.02828427
-3.1916752 10.498459 -1.8027804 0.02
-3.5505023 12.317128 -1.499041 0.02
-2.0452392 7.0951862 1.391233 0.02828427
-3.5106704 12.316149 -1.4976473 0.02
-2.0956206 7.6866431 1.3089612 0.02828427
-2.0601749 7.6512642 1.3018279 0.02
-3.4434149 12.93222 -1.5650146 0.02828427
-2.7871981 10.586512 0.76550758 0.02
-2.7507496 10.575426 0.76411241 0.02
-2.0612884 7.9247499 0.76394331 0.02828427
-2.0058064 7.8978887 0.76022762 0.02828427
-3.461946 14.1371 -1.7020724 0.02828427
-1.9098111 7.7988477 0.93896234 0.02828427
-1.7694358 7.225615 1.4016014 0.02828427
-3.4171805 14.135727 -1.7006787 0.02
-3.4517553 14.27875 0.34105945 0.02828427
-1.6648366 6.886869 -1.8548136 0.02
-1.6536849 6.9253654 -1.8639306 0.02
-3.4159617 15.498004 0 0.02828427
-1.7187325 7.7977819 1.3118793 0.02828427
-3.3750625 15.531524 0 0.02828427
-2.8543901 14.79479 0.70266449 0.02828427
-1.6783166 8.9679918 1.4989663 0.02828427
-4.2481871 23.055891 0 0.02828427
-1.8966982 10.647984 0.75629973 0.02828427
-1.6420925 9.3797646 1.3382887 0.02828427
-2.9513702 21.601622 1.01673 0.02828427
-2.8953414 21.613234 1.0169164 0.02828427
-1.983873 15.529568 1.0947582 0.02828427
-1.9419881 15.56904 1.0971298 0.02828427
-1.7855725 20.533007 -1.9228632 0.02828427
-1.2146264 15.572263 -1.826586 0.02828427
-1.1709462 15.609472 -1.8305352 0.02828427
-0.38102555 16.662071 -1.9490088 0.02
0.39053932 16.695631 -1.952958 0.02828427
0.69622409 14.08422 -1.9818251 0.02
1.3145307 16.74004 -1.9636438 0.02
1.3685673 16.753649 -1.9657346 0.02
1.2669384 12.09479 -1.9979733 0.02
3.0125265 16.844124 -2.0010443 0.02
3.0613253 16.845419 -2.0022058 0.02828427
4.961822 11.378809 -2.0394764 0.02
4.2234201 8.6401548 -2.044188 0.02828427
6.3852916 10.76262 -2.0560124 0.02
1.7471184 2.9238524 -2.0199671 0.02828427
6.9035945 10.489753 -2.0631459 0.02
7.0904832 10.378686 -2.0650914 0.02
10.613606 14.608383 -2.1116197 0.02828427
10.650848 14.573874 -2.1109231 0.02
2.3451142 3.0037723 -2.0262394 0.02828427
12.37023 13.363316 -2.1295071 0.02828427
14.043907 13.912177 -1.8442765 0.02828427
14.075615 13.865914 -1.8433478 0.02828427
11.833086 10.311753 -1.0975484 0.02828427
11.88596 10.299576 -1.0997806 0.02828427
12.531056 10.245607 -0.75483793 0.02828427
12.839164 9.830493 -0.75409263 0.02828427
12.203336 9.0696058 -2.1368639 0.02
12.241326 9.0382843 -2.1385341 0.02
12.886168 8.1999111 -2.146606 0.02
12.905167 8.155159 -2.1454926 0.02828427
16.150385 9.6964617 -2.2029142 0.02828427
11.675075 5.6540079 -2.1312366 0.02
11.690999 5.6164494 -2.1309123 0.02
17.685604 7.3328595 -2.2389209 0.02828427
14.307613 5.8884125 -2.1744406 0.02828427
18.7593 7.7205396 -1.8925804 0.02828427
14.327617 5.7974615 -2.172214 0.02828427
17.686905 7.1567488 -2.2312551 0.02828427
12.148144 4.8343382 -2.148097 0.02
3.8264763 1.4215349 -2.0503523 0.02828427
12.416495 4.2874699 -2.1581485 0.02
12.666219 3.6487339 -2.165606 0.02
18.912086 4.1684756 -2.2647064 0.02828427
18.900505 3.9382002 -2.2577374 0.02828427
12.979631 2.4290736 -2.169497 0.02
15.546453 2.7216771 -2.2181411 0.02
15.541814 2.678951 -2.216471 0.02
18.960953 2.925148 -2.243567 0.02828427
19.007828 2.8814473 -2.2482131 0.02828427
15.764354 1.7404064 -2.2289965 0.02
13.404844 1.0479207 -2.2090542 0.02
15.884032 0.82967484 -2.2353985 0.02
15.974754 -0.089220792 -2.2451406 0.02
23.39702 -0.26952621 -1.0911703 0.02828427
23.394178 -0.33483332 -1.0910771 0.02828427
16.028988 -0.78675258 -2.2554395 0.02
16.016838 -0.83099771 -2.2540479 0.02
13.436149 -1.1259034 -2.215215 0.02
13.432748 -1.1657642 -2.215215 0.02
5.6061745 -0.68239319 -2.055541 0.02
10.10044 -1.3207821 -2.1651926 0.02
13.386003 -1.7884519 -2.2187815 0.02
13.367268 -1.8239582 -2.216512 0.02
15.829703 -2.2078178 -2.2462542 0.02828427
15.868573 -2.2584319 -2.252656 0.02828427
15.774339 -3.1405728 -2.2604496 0.02
15.756355 -3.1799004 -2.259058 0.02
13.298747 -2.9653118 -2.2385602 0.02
15.614588 -3.7227998 -2.2559962 0.02
15.202288 -5.0482883 -2.2512643 0.02
15.190999 -5.0946317 -2.2518208 0.02
12.698233 -4.7123418 -2.2252665 0.02
17.56391 -6.5180044 -2.1908348 0.02828427
12.683367 -4.7522111 -2.2252665 0.02
17.537766 -6.5710607 -2.1901376 0.02828427
10.838276 -4.1669369 -2.1877573 0.02
19.985727 -8.0139589 -1.0041524 0.02828427
10.569226 -4.3455343 -1.6060578 0.02
10.582664 -4.3856473 -1.6099546 0.02
17.322989 -7.1789594 -0.87446421 0.02828427
17.328682 -7.2380857 -0.87576854 0.02828427
14.762314 -6.2692719 -2.2540479 0.02
14.689878 -6.491262 -2.2571094 0.02
16.988615 -7.681365 -1.3037485 0.02828427
16.977106 -7.7404919 -1.3047251 0.02828427
21.445673 -9.9274664 0 0.02828427
21.423304 -9.989851 0 0.02828427
5.0680857 -2.5257497 -2.0610135 0.02
11.944887 -6.1731386 -2.2090542 0.02
16.491385 -8.5227766 -2.1708567 0.02828427
16.430302 -8.8505058 -1.3050041 0.02828427
3.1315415 -1.8050826 -2.0308728 0.02
17.09923 -10.593709 -2.352284 0.02828427
15.627485 -10.12923 -2.1778257 0.02828427
12.672818 -9.0728464 -1.8226368 0.02828427
9.2359686 -6.6513934 -2.1444318 0.02
9.2150278 -6.6803761 -2.1444318 0.02
11.068325 -8.3648367 -1.9498153 0.02828427
19.506916 -14.838776 1.142971 0.02828427
18.485689 -14.225619 -0.54155427 0.02828427
11.067934 -8.6223574 -1.9718046 0.02
3.1860104 -2.5116479 -2.0377846 0.02
7.8838272 -6.2508845 -2.1385798 0.02
2.8553128 -2.2867188 -2.0553646 0.056568541
19.995537 -16.494776 0.60180956 0.039999999
2.9478285 -2.4455967 -2.0365679 0.039999999
18.70602 -15.519011 -0.56430089 0.056568541
15.730234 -13.592352 -1.4537249 0.056568541
3.247309 -2.8388021 -2.0416107 0.039999999
20.474178 -17.898556 0.63138008 0.039999999
20.419346 -17.964108 0.63142651 0.039999999
12.206939 -10.925769 -1.9157898 0.039999999
12.118799 -10.907986 -1.9067299 0.039999999
3.1570537 -2.8908799 -2.0262086 0.039999999
16.777891 -15.363333 -1.060891 0.039999999
20.209719 -18.727512 -1.9266738 0.039999999
22.844379 -21.287825 0.72496599 0.039999999
22.802999 -21.376024 0.72566235 0.056568541
20.041048 -19.011595 -1.2882183 0.039999999
13.899012 -13.408063 -1.8017322 0.039999999
19.973587 -19.268068 -0.64433175 0.039999999
13.813954 -13.410048 -1.7961586 0.039999999
22.293364 -22.535913 1.4782786 0.056568541
3.1544123 -3.2630682 -2.0206678 0.056568541
16.64489 -17.93713 -1.7111263 0.039999999
16.567675 -17.954218 -1.7083361 0.039999999
12.170183 -14.059557 -2.1745734 0.056568541
14.774652 -18.102606 -2.1799881 0.039999999
3.1096523 -4.6556821 -2.037756 0.039999999
18.597704 -30.053553 0.82054806 0.056568541
18.537796 -30.144547 0.82161582 0.056568541
3.0985789 -5.1365733 -2.0269806 0.056568541
3.2721992 -5.797749 -2.0773787 0.056568541
1.9377332 -3.5276392 -2.0216258 0.039999999
12.361666 -26.962902 -2.0741389 0.056568541
2.4049931 -6.0129118 -2.0207825 0.056568541
3.0902715 -8.0588379 -2.0450609 0.039999999
3.0552478 -10.434611 -2.0485229 0.056568541
1.4918457 -11.809163 -1.6728607 0.056568541
-1.3496166 -22.583466 2.1106908 0.039999999
-0.75171435 -12.015112 -0.84182113 0.056568541
-1.408942 -22.519983 2.1051171 0.039999999
-0.77329367 -11.798176 -1.9425281 0.056568541
-1.0530314 -11.822297 -0.55350435 0.039999999
-1.2113322 -11.701855 -1.6533765 0.039999999
-2.5646868 -22.268045 2.621289 0.056568541
-0.43024996 -3.5502007 -2.0093198 0.039999999
-2.4588585 -19.797256 1.861183 0.039999999
-2.5536439 -20.560411 2.9117799 0.039999999
-1.6383252 -11.791661 -0.83247381 0.056568541
-3.6515999 -25.721861 -1.2115419 0.039999999
-3.7277946 -25.773506 -1.2144301 0.039999999
-2.954361 -19.604227 1.3863401 0.056568541
-3.0407028 -19.778734 1.8669423 0.056568541
-3.6245275 -21.137722 -0.49791801 0.056568541
-3.7033865 -21.21945 -0.50009984 0.056568541
-3.0283539 -17.351686 2.0598166 0.039999999
-1.2324306 -6.8358688 -1.9917556 0.056568541
-3.0524635 -16.373905 0 0.039999999
-2.602607 -13.960803 0.9930532 0.056568541
-2.7500753 -13.663468 1.3003014 0.039999999
-1.5086278 -7.3756027 -1.9708028 0.039999999
-2.5755761 -11.569885 -1.9473919 0.039999999
-3.050065 -13.701363 0.65459037 0.056568541
-3.5207562 -15.815781 3.052788 0.056568541
